ply
format ascii 1.0
element vertex 541
property float x
property float y
property float z
property float nx
property float ny
property float nz
property uchar blue
property uchar green
property uchar red
end_header
3.030000e+02 2.530000e+02 2.219009e+01 4.007132e-01 7.044172e-01 5.858544e-01 92 84 82
3.040000e+02 2.530000e+02 2.124345e+01 4.573550e-01 6.858393e-01 5.660838e-01 103 95 92
3.050000e+02 2.530000e+02 2.020421e+01 5.669406e-01 6.092365e-01 5.544450e-01 121 111 109
3.060000e+02 2.530000e+02 1.911316e+01 6.779441e-01 4.910377e-01 5.470592e-01 142 130 127
3.070000e+02 2.530000e+02 1.799374e+01 7.499762e-01 3.631900e-01 5.528369e-01 156 147 142
3.080000e+02 2.530000e+02 1.689859e+01 7.787623e-01 2.352988e-01 5.815185e-01 161 154 151
3.090000e+02 2.530000e+02 1.588997e+01 7.754834e-01 7.625597e-02 6.267460e-01 146 142 139
3.100000e+02 2.530000e+02 1.498454e+01 6.795929e-01 -1.825238e-01 7.105199e-01 119 115 113
3.110000e+02 2.530000e+02 1.427968e+01 4.299500e-01 -5.732742e-01 6.974953e-01 106 102 101
3.120000e+02 2.530000e+02 1.390040e+01 1.848811e-01 -7.671714e-01 6.142207e-01 111 109 106
3.130000e+02 2.530000e+02 1.384065e+01 1.342988e-01 -7.711837e-01 6.222857e-01 108 105 102
3.140000e+02 2.530000e+02 1.389440e+01 3.423738e-01 -6.281603e-01 6.987093e-01 97 94 91
3.150000e+02 2.530000e+02 1.370921e+01 5.917123e-01 -2.471465e-01 7.673298e-01 87 82 80
3.160000e+02 2.530000e+02 1.314557e+01 7.366108e-01 6.960538e-02 6.727255e-01 86 81 80
3.170000e+02 2.530000e+02 1.219958e+01 7.738589e-01 2.423983e-01 5.851371e-01 88 84 83
3.180000e+02 2.530000e+02 1.097365e+01 8.061104e-01 3.066844e-01 5.060936e-01 91 85 85
3.190000e+02 2.530000e+02 9.439116e+00 8.269300e-01 3.415202e-01 4.467110e-01 90 86 84
3.200000e+02 2.530000e+02 7.611941e+00 8.571883e-01 3.311409e-01 3.944286e-01 87 82 80
3.210000e+02 2.530000e+02 5.440209e+00 8.718366e-01 3.289974e-01 3.628521e-01 85 79 77
3.220000e+02 2.530000e+02 3.002286e+00 8.796755e-01 3.275764e-01 3.447677e-01 80 75 72
3.230000e+02 2.530000e+02 3.612404e-01 8.972970e-01 3.081123e-01 3.161090e-01 71 65 63
1.750000e+02 2.540000e+02 -5.121300e-01 -8.260454e-01 -5.621415e-01 -4.057062e-02 0 0 0
1.760000e+02 2.540000e+02 -4.591398e-01 -9.418915e-01 2.152574e-02 3.352268e-01 17 17 17
1.770000e+02 2.540000e+02 2.142383e+00 -9.166184e-01 2.043727e-02 3.992405e-01 51 51 51
1.780000e+02 2.540000e+02 4.305753e+00 -8.637650e-01 3.960600e-02 5.023360e-01 72 71 72
1.790000e+02 2.540000e+02 6.005397e+00 -8.212115e-01 1.393871e-03 5.706222e-01 87 84 84
1.800000e+02 2.540000e+02 7.458571e+00 -7.855949e-01 -3.675546e-02 6.176485e-01 97 93 92
1.810000e+02 2.540000e+02 8.720542e+00 -7.613141e-01 -9.392736e-02 6.415438e-01 109 104 103
1.820000e+02 2.540000e+02 9.861063e+00 -7.522509e-01 -1.546182e-01 6.404778e-01 125 118 117
1.830000e+02 2.540000e+02 1.102707e+01 -7.802985e-01 -1.012540e-01 6.171563e-01 145 137 135
1.840000e+02 2.540000e+02 1.228425e+01 -8.151006e-01 -3.250186e-02 5.784070e-01 160 149 151
1.850000e+02 2.540000e+02 1.365920e+01 -8.549077e-01 3.063073e-02 5.178751e-01 175 166 170
1.860000e+02 2.540000e+02 1.523393e+01 -8.646301e-01 1.880658e-01 4.658820e-01 184 175 180
1.870000e+02 2.540000e+02 1.699722e+01 -8.235646e-01 3.518111e-01 4.449384e-01 174 164 167
1.880000e+02 2.540000e+02 1.872266e+01 -7.581015e-01 4.626924e-01 4.595627e-01 124 117 118
1.890000e+02 2.540000e+02 2.025271e+01 -6.130400e-01 5.821466e-01 5.341229e-01 66 62 66
1.900000e+02 2.540000e+02 2.134442e+01 -5.990485e-01 4.901667e-01 6.331489e-01 61 59 62
1.910000e+02 2.540000e+02 2.224003e+01 -5.505188e-01 4.590357e-01 6.972914e-01 78 76 76
1.920000e+02 2.540000e+02 2.299212e+01 -4.981357e-01 4.043714e-01 7.670362e-01 82 78 78
1.930000e+02 2.540000e+02 2.359348e+01 -4.298562e-01 3.498180e-01 8.323767e-01 82 77 77
1.940000e+02 2.540000e+02 2.404820e+01 -3.294160e-01 2.906824e-01 8.983256e-01 82 76 76
1.950000e+02 2.540000e+02 2.436646e+01 -2.610328e-01 2.062598e-01 9.430370e-01 82 76 75
1.960000e+02 2.540000e+02 2.460147e+01 -1.702783e-01 1.430497e-01 9.749575e-01 84 76 76
1.970000e+02 2.540000e+02 2.474911e+01 -8.611537e-02 1.127450e-01 9.898852e-01 88 79 78
1.980000e+02 2.540000e+02 2.481706e+01 -2.677146e-02 8.200984e-02 9.962719e-01 89 81 79
1.990000e+02 2.540000e+02 2.482519e+01 -2.051527e-02 1.070276e-01 9.940444e-01 92 85 84
2.000000e+02 2.540000e+02 2.488904e+01 -3.136533e-01 3.329646e-01 8.892447e-01 115 107 105
2.010000e+02 2.540000e+02 2.532511e+01 -4.691544e-01 4.572010e-01 7.555537e-01 135 127 124
2.020000e+02 2.540000e+02 2.604305e+01 -5.886743e-01 5.352327e-01 6.057959e-01 128 119 117
2.030000e+02 2.540000e+02 2.695499e+01 -6.252938e-01 4.477893e-01 6.391341e-01 90 84 86
2.040000e+02 2.540000e+02 2.775944e+01 -5.858934e-01 3.629751e-01 7.245537e-01 88 84 85
2.050000e+02 2.540000e+02 2.842121e+01 -5.379805e-01 3.072893e-01 7.849524e-01 88 83 83
2.060000e+02 2.540000e+02 2.896568e+01 -4.301008e-01 2.865617e-01 8.560933e-01 82 79 78
2.070000e+02 2.540000e+02 2.934272e+01 -3.151200e-01 2.543779e-01 9.143256e-01 80 76 75
2.080000e+02 2.540000e+02 2.957284e+01 -1.977339e-01 2.505236e-01 9.477021e-01 83 76 75
2.090000e+02 2.540000e+02 2.969659e+01 -2.142228e-01 3.125753e-01 9.254217e-01 86 78 76
2.100000e+02 2.540000e+02 2.976295e+01 -2.393629e-01 2.360347e-01 9.418031e-01 84 76 75
2.110000e+02 2.540000e+02 2.983954e+01 -1.094767e-01 1.042254e-01 9.885100e-01 84 76 76
2.120000e+02 2.540000e+02 2.982092e+01 5.766648e-02 3.075309e-02 9.978621e-01 85 80 79
2.130000e+02 2.540000e+02 2.967179e+01 2.189925e-01 -1.766703e-02 9.755666e-01 89 83 81
2.140000e+02 2.540000e+02 2.939557e+01 3.371502e-01 -7.103861e-02 9.387669e-01 92 84 83
2.150000e+02 2.540000e+02 2.901123e+01 3.776794e-01 -1.438774e-02 9.258246e-01 93 84 83
2.160000e+02 2.540000e+02 2.861012e+01 -6.735437e-02 3.293892e-01 9.417888e-01 102 94 92
2.170000e+02 2.540000e+02 2.854388e+01 -4.722982e-01 4.013642e-01 7.847555e-01 133 127 125
2.180000e+02 2.540000e+02 2.890447e+01 -8.644788e-01 7.733590e-03 5.026098e-01 143 139 139
2.190000e+02 2.540000e+02 2.985430e+01 -6.774979e-01 -1.540168e-02 7.353634e-01 85 82 83
2.200000e+02 2.540000e+02 3.046060e+01 -3.312646e-01 8.259095e-02 9.399162e-01 81 76 75
2.210000e+02 2.540000e+02 3.066054e+01 -2.239055e-01 7.446378e-02 9.717621e-01 83 78 77
2.220000e+02 2.540000e+02 3.077709e+01 -2.177186e-01 5.907759e-02 9.742220e-01 85 79 78
2.230000e+02 2.540000e+02 3.090388e+01 -2.200926e-01 6.553096e-02 9.732754e-01 86 79 78
2.240000e+02 2.540000e+02 3.103352e+01 -1.913780e-01 4.531866e-02 9.804696e-01 85 78 77
2.250000e+02 2.540000e+02 3.115287e+01 -1.835187e-01 3.058633e-02 9.825403e-01 87 78 77
2.260000e+02 2.540000e+02 3.126896e+01 -1.929314e-01 2.525529e-02 9.808872e-01 87 78 78
2.270000e+02 2.540000e+02 3.139865e+01 -1.703513e-01 4.443607e-02 9.843810e-01 86 79 78
2.280000e+02 2.540000e+02 3.151337e+01 -1.552444e-01 2.251434e-02 9.876195e-01 86 79 78
2.290000e+02 2.540000e+02 3.162305e+01 -1.556897e-01 3.281437e-02 9.872608e-01 85 79 77
2.300000e+02 2.540000e+02 3.172580e+01 -1.478721e-01 1.656319e-02 9.888678e-01 84 78 77
2.310000e+02 2.540000e+02 3.183147e+01 -1.379948e-01 3.370818e-02 9.898592e-01 85 78 77
2.320000e+02 2.540000e+02 3.192516e+01 -1.321190e-01 3.930266e-02 9.904544e-01 84 77 77
2.330000e+02 2.540000e+02 3.201096e+01 -1.401908e-01 3.374377e-02 9.895493e-01 83 77 78
2.340000e+02 2.540000e+02 3.209801e+01 -1.697703e-01 1.854626e-02 9.853091e-01 85 78 78
2.350000e+02 2.540000e+02 3.222360e+01 -1.347921e-01 4.015126e-02 9.900601e-01 84 78 78
2.360000e+02 2.540000e+02 3.232224e+01 -1.284257e-01 1.096958e-02 9.916585e-01 83 77 78
2.370000e+02 2.540000e+02 3.242492e+01 -1.275758e-01 2.319752e-02 9.915575e-01 84 77 78
2.380000e+02 2.540000e+02 3.252282e+01 -1.319984e-01 2.360337e-02 9.909689e-01 84 78 78
2.390000e+02 2.540000e+02 3.262650e+01 -1.223165e-01 1.575068e-02 9.923662e-01 85 78 78
2.400000e+02 2.540000e+02 3.271666e+01 -1.153747e-01 6.636653e-03 9.932999e-01 84 77 77
2.410000e+02 2.540000e+02 3.279569e+01 -7.296263e-02 1.937783e-02 9.971464e-01 84 78 77
2.420000e+02 2.540000e+02 3.284090e+01 -5.786730e-02 2.571536e-02 9.979930e-01 84 78 78
2.430000e+02 2.540000e+02 3.287191e+01 -2.239697e-02 2.717356e-02 9.993798e-01 85 78 78
2.440000e+02 2.540000e+02 3.288909e+01 1.534687e-03 4.558156e-02 9.989594e-01 86 78 78
2.450000e+02 2.540000e+02 3.287630e+01 4.447749e-02 2.220236e-02 9.987636e-01 85 78 78
2.460000e+02 2.540000e+02 3.283878e+01 1.398032e-01 3.436470e-02 9.895828e-01 83 77 77
2.470000e+02 2.540000e+02 3.271339e+01 4.635215e-01 6.036942e-02 8.840268e-01 84 80 79
2.480000e+02 2.540000e+02 3.221575e+01 5.740734e-01 1.749026e-01 7.999055e-01 94 87 84
2.490000e+02 2.540000e+02 3.154818e+01 -2.996561e-01 3.604746e-01 8.833257e-01 92 89 88
2.500000e+02 2.540000e+02 3.186528e+01 -4.818240e-01 2.119432e-01 8.502503e-01 85 82 80
2.510000e+02 2.540000e+02 3.237668e+01 -1.452249e-01 1.032190e-01 9.839998e-01 81 75 74
2.520000e+02 2.540000e+02 3.251920e+01 3.495024e-02 9.902748e-02 9.944707e-01 83 76 76
2.530000e+02 2.540000e+02 3.247643e+01 1.389447e-01 7.667101e-02 9.873277e-01 84 78 77
2.540000e+02 2.540000e+02 3.235396e+01 1.672321e-01 8.424087e-02 9.823120e-01 83 77 77
2.550000e+02 2.540000e+02 3.219843e+01 2.259962e-01 9.251371e-02 9.697252e-01 84 76 77
2.560000e+02 2.540000e+02 3.198870e+01 3.035761e-01 1.506090e-01 9.408286e-01 84 77 77
2.570000e+02 2.540000e+02 3.168394e+01 5.132957e-01 2.042068e-01 8.335629e-01 89 81 80
2.580000e+02 2.540000e+02 3.106847e+01 4.358032e-01 2.384858e-01 8.678710e-01 90 82 79
2.590000e+02 2.540000e+02 3.057869e+01 -3.659559e-01 2.129595e-01 9.059385e-01 92 84 82
2.600000e+02 2.540000e+02 3.098204e+01 -2.661093e-01 9.165724e-02 9.595753e-01 86 77 75
2.610000e+02 2.540000e+02 3.125697e+01 2.187271e-02 9.822656e-02 9.949237e-01 85 77 75
2.620000e+02 2.540000e+02 3.123044e+01 1.432016e-01 1.017315e-01 9.844511e-01 86 78 76
2.630000e+02 2.540000e+02 3.108287e+01 1.559850e-01 7.856759e-02 9.846298e-01 85 77 75
2.640000e+02 2.540000e+02 3.093310e+01 1.564749e-01 1.057820e-01 9.820009e-01 86 77 76
2.650000e+02 2.540000e+02 3.078167e+01 1.564990e-01 1.133690e-01 9.811501e-01 84 77 76
2.660000e+02 2.540000e+02 3.063889e+01 1.494479e-01 1.269085e-01 9.805914e-01 85 77 75
2.670000e+02 2.540000e+02 3.049995e+01 1.015107e-01 1.335383e-01 9.858312e-01 86 77 76
2.680000e+02 2.540000e+02 3.040942e+01 9.185553e-02 1.107200e-01 9.895977e-01 85 77 76
2.690000e+02 2.540000e+02 3.033179e+01 6.945244e-02 1.237070e-01 9.898853e-01 85 77 76
2.700000e+02 2.540000e+02 3.027716e+01 6.640413e-02 1.073425e-01 9.920021e-01 85 77 76
2.710000e+02 2.540000e+02 3.022390e+01 7.500335e-02 8.545772e-02 9.935147e-01 85 77 76
2.720000e+02 2.540000e+02 3.016984e+01 8.232516e-02 1.018502e-01 9.913875e-01 86 78 75
2.730000e+02 2.540000e+02 3.009802e+01 1.172520e-01 8.716433e-02 9.892696e-01 85 77 76
2.740000e+02 2.540000e+02 3.000165e+01 1.605630e-01 8.884352e-02 9.830190e-01 84 77 76
2.750000e+02 2.540000e+02 2.986892e+01 2.117264e-01 9.860490e-02 9.723420e-01 84 78 75
2.760000e+02 2.540000e+02 2.970238e+01 2.293396e-01 1.300220e-01 9.646230e-01 84 77 75
2.770000e+02 2.540000e+02 2.950823e+01 2.872318e-01 1.539060e-01 9.454157e-01 83 77 75
2.780000e+02 2.540000e+02 2.926511e+01 3.680974e-01 2.013089e-01 9.077329e-01 83 76 75
2.790000e+02 2.540000e+02 2.893464e+01 5.750711e-01 2.701073e-01 7.722275e-01 88 79 77
2.800000e+02 2.540000e+02 2.825282e+01 5.788395e-01 4.668338e-01 6.685889e-01 103 92 90
2.810000e+02 2.540000e+02 2.737920e+01 7.321254e-02 4.976327e-01 8.642926e-01 94 88 88
2.820000e+02 2.540000e+02 2.721873e+01 -3.904995e-01 2.509293e-01 8.857452e-01 92 86 87
2.830000e+02 2.540000e+02 2.757174e+01 -4.504621e-01 1.849302e-01 8.734327e-01 91 85 85
2.840000e+02 2.540000e+02 2.802279e+01 -3.867411e-01 1.728386e-01 9.058466e-01 86 79 79
2.850000e+02 2.540000e+02 2.841595e+01 -1.227328e-01 3.071995e-01 9.436976e-01 79 73 73
2.860000e+02 2.540000e+02 2.853887e+01 2.237888e-01 4.780092e-01 8.493679e-01 81 75 73
2.870000e+02 2.540000e+02 2.828763e+01 4.060668e-01 5.288004e-01 7.453053e-01 86 79 77
2.880000e+02 2.540000e+02 2.779864e+01 4.513658e-01 6.121438e-01 6.492680e-01 90 82 82
2.890000e+02 2.540000e+02 2.712252e+01 4.142473e-01 7.113772e-01 5.677513e-01 99 92 91
2.900000e+02 2.540000e+02 2.628677e+01 4.418398e-01 7.292759e-01 5.224312e-01 123 115 114
2.910000e+02 2.540000e+02 2.530410e+01 5.158498e-01 6.681321e-01 5.361888e-01 149 139 138
2.920000e+02 2.540000e+02 2.436464e+01 4.662101e-01 6.245421e-01 6.265742e-01 149 141 139
2.930000e+02 2.540000e+02 2.366560e+01 3.321380e-01 5.392063e-01 7.739127e-01 129 121 119
2.940000e+02 2.540000e+02 2.325037e+01 1.223865e-01 3.045975e-01 9.445856e-01 99 92 92
2.950000e+02 2.540000e+02 2.319489e+01 -1.636634e-01 6.043172e-02 9.846635e-01 89 81 80
2.960000e+02 2.540000e+02 2.343248e+01 -1.346692e-01 1.104694e-01 9.847135e-01 85 76 75
2.970000e+02 2.540000e+02 2.364711e+01 6.848246e-03 3.002056e-01 9.538499e-01 81 74 74
2.980000e+02 2.540000e+02 2.372847e+01 1.718665e-01 5.133947e-01 8.407662e-01 81 76 75
2.990000e+02 2.540000e+02 2.358802e+01 2.777549e-01 6.442296e-01 7.126152e-01 84 79 77
3.000000e+02 2.540000e+02 2.319700e+01 3.003863e-01 7.100197e-01 6.368988e-01 87 80 78
3.010000e+02 2.540000e+02 2.261502e+01 3.021877e-01 7.484504e-01 5.903427e-01 93 85 85
3.020000e+02 2.540000e+02 2.187239e+01 3.672761e-01 7.393547e-01 5.643252e-01 106 97 95
3.030000e+02 2.540000e+02 2.098422e+01 5.527256e-01 6.394628e-01 5.343985e-01 128 118 116
3.040000e+02 2.540000e+02 1.993191e+01 6.709487e-01 5.289494e-01 5.196540e-01 154 144 140
3.050000e+02 2.540000e+02 1.886053e+01 7.292275e-01 4.218100e-01 5.387982e-01 167 157 154
3.060000e+02 2.540000e+02 1.783811e+01 7.311049e-01 3.176309e-01 6.038181e-01 162 152 149
3.070000e+02 2.540000e+02 1.692833e+01 7.266172e-01 1.583831e-01 6.685374e-01 146 138 134
3.080000e+02 2.540000e+02 1.612313e+01 6.820297e-01 -1.261276e-01 7.203661e-01 124 118 115
3.090000e+02 2.540000e+02 1.544475e+01 4.658532e-01 -5.241775e-01 7.128946e-01 110 108 107
3.100000e+02 2.540000e+02 1.503500e+01 1.893225e-01 -7.316304e-01 6.548847e-01 109 109 107
3.110000e+02 2.540000e+02 1.494800e+01 9.860278e-02 -7.679859e-01 6.328311e-01 109 106 104
3.120000e+02 2.540000e+02 1.499177e+01 2.320823e-01 -6.962240e-01 6.792716e-01 100 98 95
3.130000e+02 2.540000e+02 1.491398e+01 4.450320e-01 -4.363509e-01 7.820131e-01 88 84 81
3.140000e+02 2.540000e+02 1.459720e+01 6.427027e-01 -5.773199e-02 7.639374e-01 85 78 77
3.150000e+02 2.540000e+02 1.394381e+01 7.120208e-01 1.913475e-01 6.755831e-01 88 81 79
3.160000e+02 2.540000e+02 1.302380e+01 7.497344e-01 2.994576e-01 5.901047e-01 89 84 82
3.170000e+02 2.540000e+02 1.186067e+01 7.710089e-01 3.519369e-01 5.307407e-01 91 87 85
3.180000e+02 2.540000e+02 1.049721e+01 7.922951e-01 3.864001e-01 4.721902e-01 90 87 84
3.190000e+02 2.540000e+02 8.866751e+00 8.152625e-01 3.904573e-01 4.276566e-01 89 85 81
3.200000e+02 2.540000e+02 6.963149e+00 8.465973e-01 3.677475e-01 3.847530e-01 84 78 74
3.210000e+02 2.540000e+02 4.727924e+00 8.667324e-01 3.507513e-01 3.546103e-01 81 75 72
3.220000e+02 2.540000e+02 2.221382e+00 8.787658e-01 3.420790e-01 3.327951e-01 75 69 66
3.230000e+02 2.540000e+02 -5.113286e-01 8.762887e-01 3.551652e-01 3.255392e-01 51 46 42
1.760000e+02 2.550000e+02 -8.964096e-01 -9.634593e-01 -2.298348e-02 2.668671e-01 4 4 4
1.770000e+02 2.550000e+02 1.631841e+00 -9.369723e-01 -4.343428e-03 3.493766e-01 34 33 33
1.780000e+02 2.550000e+02 4.055290e+00 -8.935911e-01 6.800277e-02 4.437011e-01 62 62 62
1.790000e+02 2.550000e+02 5.987311e+00 -8.487172e-01 5.446357e-02 5.260350e-01 78 76 77
1.800000e+02 2.550000e+02 7.570091e+00 -8.083785e-01 1.864269e-02 5.883677e-01 89 86 85
1.810000e+02 2.550000e+02 8.925979e+00 -7.761968e-01 -1.498061e-02 6.303127e-01 98 94 92
1.820000e+02 2.550000e+02 1.011773e+01 -7.537536e-01 -8.066788e-02 6.521873e-01 112 106 103
1.830000e+02 2.550000e+02 1.119377e+01 -7.432365e-01 -1.525363e-01 6.514079e-01 124 116 114
1.840000e+02 2.550000e+02 1.227517e+01 -7.608915e-01 -1.327142e-01 6.351623e-01 141 131 129
1.850000e+02 2.550000e+02 1.341986e+01 -7.992721e-01 -5.361436e-02 5.985730e-01 157 146 147
1.860000e+02 2.550000e+02 1.466306e+01 -8.266339e-01 6.271096e-02 5.592349e-01 167 156 159
1.870000e+02 2.550000e+02 1.608422e+01 -8.124260e-01 2.656454e-01 5.190343e-01 177 167 170
1.880000e+02 2.550000e+02 1.761304e+01 -7.793461e-01 4.069921e-01 4.764212e-01 177 169 171
1.890000e+02 2.550000e+02 1.918738e+01 -6.826560e-01 5.483427e-01 4.830125e-01 133 127 131
1.900000e+02 2.550000e+02 2.061605e+01 -5.265117e-01 6.604776e-01 5.353081e-01 77 75 80
1.910000e+02 2.550000e+02 2.159945e+01 -5.555210e-01 5.399131e-01 6.323688e-01 60 58 61
1.920000e+02 2.550000e+02 2.246799e+01 -5.128848e-01 4.959265e-01 7.007182e-01 75 72 73
1.930000e+02 2.550000e+02 2.316622e+01 -4.469190e-01 4.467780e-01 7.750179e-01 82 78 78
1.940000e+02 2.550000e+02 2.370924e+01 -3.733330e-01 3.909773e-01 8.412843e-01 83 77 78
1.950000e+02 2.550000e+02 2.411690e+01 -3.114046e-01 3.437545e-01 8.859233e-01 83 76 75
1.960000e+02 2.550000e+02 2.440910e+01 -2.525930e-01 2.754877e-01 9.275254e-01 82 75 74
1.970000e+02 2.550000e+02 2.460528e+01 -1.714327e-01 2.068140e-01 9.632439e-01 85 77 76
1.980000e+02 2.550000e+02 2.472086e+01 -5.385117e-02 1.477749e-01 9.875539e-01 86 78 77
1.990000e+02 2.550000e+02 2.473499e+01 9.993881e-03 1.118712e-01 9.936725e-01 89 81 80
2.000000e+02 2.550000e+02 2.472365e+01 -2.360023e-01 3.010003e-01 9.239598e-01 105 98 96
2.010000e+02 2.550000e+02 2.500491e+01 -3.903691e-01 4.086847e-01 8.249780e-01 127 118 116
2.020000e+02 2.550000e+02 2.554812e+01 -5.039832e-01 5.301665e-01 6.818537e-01 145 136 132
2.030000e+02 2.550000e+02 2.634930e+01 -5.876182e-01 5.677215e-01 5.765390e-01 116 107 108
2.040000e+02 2.550000e+02 2.722647e+01 -6.071325e-01 4.572087e-01 6.498848e-01 85 81 81
2.050000e+02 2.550000e+02 2.797366e+01 -5.536051e-01 3.936390e-01 7.338731e-01 86 82 82
2.060000e+02 2.550000e+02 2.856457e+01 -4.634249e-01 3.680674e-01 8.060793e-01 84 80 80
2.070000e+02 2.550000e+02 2.899361e+01 -3.407140e-01 3.299570e-01 8.803649e-01 79 77 76
2.080000e+02 2.550000e+02 2.925303e+01 -1.983067e-01 2.787739e-01 9.396593e-01 81 75 76
2.090000e+02 2.550000e+02 2.937838e+01 -9.016920e-02 3.018445e-01 9.490835e-01 87 79 79
2.100000e+02 2.550000e+02 2.943930e+01 -3.199046e-01 3.759537e-01 8.696665e-01 91 84 82
2.110000e+02 2.550000e+02 2.962617e+01 -2.756469e-01 2.589181e-01 9.257322e-01 82 75 75
2.120000e+02 2.550000e+02 2.972241e+01 -5.622562e-02 1.259339e-01 9.904440e-01 81 76 75
2.130000e+02 2.550000e+02 2.964756e+01 1.653883e-01 9.409136e-03 9.861836e-01 86 80 78
2.140000e+02 2.550000e+02 2.939674e+01 3.307614e-01 -4.606394e-02 9.425895e-01 90 83 82
2.150000e+02 2.550000e+02 2.896216e+01 4.187049e-01 -8.413115e-02 9.042169e-01 94 86 85
2.160000e+02 2.550000e+02 2.846729e+01 -9.389853e-03 3.107688e-01 9.504392e-01 101 95 93
2.170000e+02 2.550000e+02 2.842810e+01 -3.822098e-01 4.844124e-01 7.869309e-01 127 121 119
2.180000e+02 2.550000e+02 2.880571e+01 -7.772685e-01 2.205599e-01 5.892428e-01 122 116 115
2.190000e+02 2.550000e+02 2.972396e+01 -7.002903e-01 8.869776e-02 7.083263e-01 83 79 80
2.200000e+02 2.550000e+02 3.042896e+01 -3.599457e-01 1.508015e-01 9.207052e-01 79 75 74
2.210000e+02 2.550000e+02 3.067145e+01 -2.509837e-01 1.351924e-01 9.585041e-01 82 76 75
2.220000e+02 2.550000e+02 3.081344e+01 -2.127837e-01 1.081946e-01 9.710906e-01 83 77 75
2.230000e+02 2.550000e+02 3.093895e+01 -1.977540e-01 1.042490e-01 9.746925e-01 84 77 77
2.240000e+02 2.550000e+02 3.106652e+01 -2.089979e-01 1.097559e-01 9.717374e-01 85 77 78
2.250000e+02 2.550000e+02 3.119699e+01 -1.814965e-01 1.025748e-01 9.780273e-01 85 77 77
2.260000e+02 2.550000e+02 3.130841e+01 -1.832234e-01 1.102727e-01 9.768670e-01 85 77 76
2.270000e+02 2.550000e+02 3.141914e+01 -1.644786e-01 1.065486e-01 9.806091e-01 84 77 77
2.280000e+02 2.550000e+02 3.152774e+01 -1.740177e-01 1.011346e-01 9.795354e-01 85 77 77
2.290000e+02 2.550000e+02 3.164180e+01 -1.449533e-01 1.066740e-01 9.836713e-01 83 78 76
2.300000e+02 2.550000e+02 3.174181e+01 -1.367459e-01 9.703728e-02 9.858419e-01 82 77 75
2.310000e+02 2.550000e+02 3.183407e+01 -1.256425e-01 9.466231e-02 9.875490e-01 83 76 76
2.320000e+02 2.550000e+02 3.192503e+01 -1.171636e-01 1.189793e-01 9.859597e-01 83 77 76
2.330000e+02 2.550000e+02 3.199910e+01 -1.165397e-01 1.150568e-01 9.864991e-01 83 76 76
2.340000e+02 2.550000e+02 3.207252e+01 -1.483292e-01 1.164723e-01 9.820553e-01 82 76 76
2.350000e+02 2.550000e+02 3.218665e+01 -1.345541e-01 1.192850e-01 9.837003e-01 82 76 77
2.360000e+02 2.550000e+02 3.229910e+01 -1.303954e-01 9.499155e-02 9.869010e-01 82 75 77
2.370000e+02 2.550000e+02 3.240294e+01 -1.181784e-01 7.359564e-02 9.902613e-01 82 76 77
2.380000e+02 2.550000e+02 3.249972e+01 -1.225125e-01 8.636403e-02 9.887022e-01 83 77 76
2.390000e+02 2.550000e+02 3.260573e+01 -1.155976e-01 9.752191e-02 9.884972e-01 83 77 76
2.400000e+02 2.550000e+02 3.269975e+01 -1.034726e-01 1.306835e-01 9.860098e-01 82 76 75
2.410000e+02 2.550000e+02 3.276060e+01 -7.824288e-02 1.244874e-01 9.891314e-01 82 76 76
2.420000e+02 2.550000e+02 3.280001e+01 -4.298799e-02 1.143320e-01 9.925121e-01 81 76 75
2.430000e+02 2.550000e+02 3.282344e+01 -1.468555e-02 9.718217e-02 9.951583e-01 83 76 77
2.440000e+02 2.550000e+02 3.282762e+01 2.106224e-03 9.414904e-02 9.955559e-01 84 76 77
2.450000e+02 2.550000e+02 3.282359e+01 3.821550e-02 9.974078e-02 9.942793e-01 83 76 76
2.460000e+02 2.550000e+02 3.278398e+01 1.500361e-01 1.200544e-01 9.813644e-01 82 75 76
2.470000e+02 2.550000e+02 3.262835e+01 4.427008e-01 1.147989e-01 8.892903e-01 84 78 77
2.480000e+02 2.550000e+02 3.212881e+01 6.268739e-01 1.700235e-01 7.603428e-01 96 88 86
2.490000e+02 2.550000e+02 3.134808e+01 -1.935676e-01 4.105892e-01 8.910377e-01 95 90 88
2.500000e+02 2.550000e+02 3.155340e+01 -5.367150e-01 2.779946e-01 7.966530e-01 89 85 85
2.510000e+02 2.550000e+02 3.216909e+01 -2.481543e-01 1.838650e-01 9.511115e-01 79 72 73
2.520000e+02 2.550000e+02 3.241067e+01 4.235532e-02 1.547838e-01 9.870400e-01 81 75 74
2.530000e+02 2.550000e+02 3.238024e+01 1.346783e-01 1.472470e-01 9.798878e-01 84 76 76
2.540000e+02 2.550000e+02 3.225505e+01 1.732240e-01 1.352871e-01 9.755464e-01 83 76 75
2.550000e+02 2.550000e+02 3.209460e+01 2.391949e-01 1.650909e-01 9.568337e-01 82 77 75
2.560000e+02 2.550000e+02 3.185585e+01 3.707643e-01 1.770169e-01 9.117011e-01 83 78 77
2.570000e+02 2.550000e+02 3.147985e+01 5.342007e-01 1.853203e-01 8.247945e-01 90 83 82
2.580000e+02 2.550000e+02 3.087726e+01 4.310125e-01 2.856686e-01 8.559332e-01 91 83 81
2.590000e+02 2.550000e+02 3.038529e+01 -4.041279e-01 2.613437e-01 8.765729e-01 91 87 85
2.600000e+02 2.550000e+02 3.083465e+01 -3.094217e-01 1.459204e-01 9.396624e-01 83 78 74
2.610000e+02 2.550000e+02 3.116312e+01 2.493203e-02 1.598040e-01 9.868339e-01 83 76 74
2.620000e+02 2.550000e+02 3.114884e+01 1.414570e-01 1.706881e-01 9.751182e-01 85 76 75
2.630000e+02 2.550000e+02 3.101456e+01 1.762828e-01 1.591325e-01 9.713914e-01 85 77 75
2.640000e+02 2.550000e+02 3.084244e+01 1.647596e-01 1.572403e-01 9.737196e-01 85 77 76
2.650000e+02 2.550000e+02 3.068423e+01 1.522658e-01 1.656336e-01 9.743616e-01 83 77 76
2.660000e+02 2.550000e+02 3.053518e+01 1.460648e-01 1.843422e-01 9.719481e-01 84 76 75
2.670000e+02 2.550000e+02 3.039603e+01 1.083262e-01 2.017652e-01 9.734250e-01 85 77 76
2.680000e+02 2.550000e+02 3.030285e+01 7.849427e-02 1.884767e-01 9.789357e-01 84 76 76
2.690000e+02 2.550000e+02 3.023676e+01 7.102327e-02 1.762575e-01 9.817785e-01 83 76 76
2.700000e+02 2.550000e+02 3.018968e+01 8.286942e-02 1.680116e-01 9.822957e-01 85 77 77
2.710000e+02 2.550000e+02 3.013863e+01 7.548078e-02 1.613836e-01 9.840010e-01 84 76 76
2.720000e+02 2.550000e+02 3.008458e+01 8.903820e-02 1.697143e-01 9.814628e-01 82 76 75
2.730000e+02 2.550000e+02 3.002166e+01 1.246006e-01 1.872034e-01 9.743868e-01 83 77 74
2.740000e+02 2.550000e+02 2.992227e+01 1.645736e-01 1.927221e-01 9.673540e-01 82 76 75
2.750000e+02 2.550000e+02 2.977938e+01 2.173482e-01 1.856133e-01 9.582836e-01 82 76 74
2.760000e+02 2.550000e+02 2.958986e+01 2.563898e-01 2.288347e-01 9.390947e-01 83 75 75
2.770000e+02 2.550000e+02 2.936437e+01 3.169158e-01 2.801417e-01 9.061374e-01 82 77 75
2.780000e+02 2.550000e+02 2.906320e+01 4.420863e-01 3.097937e-01 8.417765e-01 84 77 76
2.790000e+02 2.550000e+02 2.862037e+01 6.121732e-01 4.117690e-01 6.750483e-01 91 82 82
2.800000e+02 2.550000e+02 2.779923e+01 4.770945e-01 6.254417e-01 6.174168e-01 113 103 101
2.810000e+02 2.550000e+02 2.703172e+01 8.488601e-02 6.065182e-01 7.905251e-01 102 94 93
2.820000e+02 2.550000e+02 2.692481e+01 -3.429075e-01 3.777488e-01 8.600699e-01 92 89 90
2.830000e+02 2.550000e+02 2.729063e+01 -4.310843e-01 2.929725e-01 8.534245e-01 90 86 86
2.840000e+02 2.550000e+02 2.776911e+01 -2.742404e-01 3.713529e-01 8.870678e-01 84 78 79
2.850000e+02 2.550000e+02 2.805255e+01 6.970165e-02 5.273028e-01 8.468137e-01 80 76 74
2.860000e+02 2.550000e+02 2.795645e+01 3.251919e-01 6.039931e-01 7.276281e-01 86 79 78
2.870000e+02 2.550000e+02 2.752953e+01 3.531645e-01 6.892199e-01 6.326538e-01 91 85 84
2.880000e+02 2.550000e+02 2.689997e+01 3.556754e-01 7.548244e-01 5.511218e-01 106 98 97
2.890000e+02 2.550000e+02 2.607160e+01 4.426897e-01 7.352949e-01 5.131933e-01 134 124 123
2.900000e+02 2.550000e+02 2.510967e+01 5.504283e-01 6.490731e-01 5.251027e-01 156 147 143
2.910000e+02 2.550000e+02 2.416341e+01 5.085591e-01 6.063963e-01 6.112701e-01 153 145 141
2.920000e+02 2.550000e+02 2.345767e+01 3.514631e-01 5.605478e-01 7.498399e-01 134 126 126
2.930000e+02 2.550000e+02 2.305123e+01 2.081408e-01 4.147600e-01 8.858056e-01 104 99 98
2.940000e+02 2.550000e+02 2.290316e+01 -5.281175e-02 2.586603e-01 9.645236e-01 88 81 81
2.950000e+02 2.550000e+02 2.306166e+01 -6.291707e-02 3.845812e-01 9.209445e-01 85 76 76
2.960000e+02 2.550000e+02 2.322450e+01 5.930752e-02 5.610165e-01 8.256774e-01 84 77 75
2.970000e+02 2.550000e+02 2.322349e+01 1.408985e-01 6.840946e-01 7.156551e-01 85 79 77
2.980000e+02 2.550000e+02 2.302406e+01 2.063914e-01 7.433381e-01 6.362790e-01 86 81 79
2.990000e+02 2.550000e+02 2.260872e+01 2.186744e-01 7.783654e-01 5.884970e-01 95 88 86
3.000000e+02 2.550000e+02 2.205714e+01 2.891276e-01 7.805981e-01 5.541406e-01 112 104 104
3.010000e+02 2.550000e+02 2.134700e+01 4.412737e-01 7.209803e-01 5.342893e-01 137 129 128
3.020000e+02 2.550000e+02 2.050130e+01 6.356539e-01 5.773316e-01 5.124767e-01 160 151 149
3.030000e+02 2.550000e+02 1.953676e+01 7.380724e-01 4.356223e-01 5.152497e-01 174 167 163
3.040000e+02 2.550000e+02 1.855655e+01 7.491032e-01 3.344165e-01 5.718478e-01 167 162 158
3.050000e+02 2.550000e+02 1.769179e+01 7.208166e-01 2.042732e-01 6.623413e-01 146 142 139
3.060000e+02 2.550000e+02 1.696478e+01 6.527826e-01 -5.723442e-02 7.553801e-01 118 116 111
3.070000e+02 2.550000e+02 1.637598e+01 4.445099e-01 -4.770364e-01 7.581868e-01 106 102 99
3.080000e+02 2.550000e+02 1.603078e+01 1.758509e-01 -7.104934e-01 6.813778e-01 109 105 102
3.090000e+02 2.550000e+02 1.596028e+01 7.940054e-02 -7.557242e-01 6.500588e-01 113 110 107
3.100000e+02 2.550000e+02 1.599592e+01 1.368578e-01 -6.808419e-01 7.195306e-01 102 99 97
3.110000e+02 2.550000e+02 1.599185e+01 3.350046e-01 -4.694731e-01 8.169253e-01 89 85 83
3.120000e+02 2.550000e+02 1.579717e+01 5.558907e-01 -1.210910e-01 8.223883e-01 84 78 77
3.130000e+02 2.550000e+02 1.531368e+01 6.479671e-01 1.661108e-01 7.433343e-01 84 79 77
3.140000e+02 2.550000e+02 1.458509e+01 6.857984e-01 3.029667e-01 6.617339e-01 87 82 80
3.150000e+02 2.550000e+02 1.365406e+01 7.269000e-01 3.470829e-01 5.925789e-01 90 84 84
3.160000e+02 2.550000e+02 1.256070e+01 7.322259e-01 4.067062e-01 5.462924e-01 94 87 85
3.170000e+02 2.550000e+02 1.133266e+01 7.536273e-01 4.355512e-01 4.922815e-01 92 87 86
3.180000e+02 2.550000e+02 9.893013e+00 7.771429e-01 4.422670e-01 4.477150e-01 91 86 84
3.190000e+02 2.550000e+02 8.218499e+00 8.131616e-01 4.158185e-01 4.072631e-01 85 81 77
3.200000e+02 2.550000e+02 6.246047e+00 8.319059e-01 4.022628e-01 3.822528e-01 78 72 68
3.210000e+02 2.550000e+02 3.963682e+00 8.526978e-01 3.816674e-01 3.567022e-01 76 70 66
3.220000e+02 2.550000e+02 1.396469e+00 8.711949e-01 3.639717e-01 3.294602e-01 63 57 53
1.760000e+02 2.560000e+02 -3.168796e-01 -8.260454e-01 -5.621415e-01 -4.057062e-02 0 0 0
1.770000e+02 2.560000e+02 6.715489e-01 -9.510409e-01 -2.749557e-02 3.078396e-01 14 15 16
1.780000e+02 2.560000e+02 3.603777e+00 -9.201285e-01 5.431524e-02 3.878316e-01 49 50 49
1.790000e+02 2.560000e+02 5.837723e+00 -8.713828e-01 1.031301e-01 4.796417e-01 68 67 68
1.800000e+02 2.560000e+02 7.589273e+00 -8.245881e-01 8.799681e-02 5.588479e-01 80 78 78
1.810000e+02 2.560000e+02 9.034866e+00 -7.899829e-01 6.335695e-02 6.098466e-01 88 84 83
1.820000e+02 2.560000e+02 1.029874e+01 -7.598551e-01 2.100656e-02 6.497530e-01 100 95 92
1.830000e+02 2.560000e+02 1.140997e+01 -7.492839e-01 -4.091471e-02 6.609838e-01 107 102 100
1.840000e+02 2.560000e+02 1.242058e+01 -7.424684e-01 -1.278603e-01 6.575655e-01 122 114 111
1.850000e+02 2.560000e+02 1.340668e+01 -7.405496e-01 -1.327413e-01 6.587610e-01 134 126 124
1.860000e+02 2.560000e+02 1.438639e+01 -7.707917e-01 -8.470592e-02 6.314310e-01 147 139 137
1.870000e+02 2.560000e+02 1.545280e+01 -7.987268e-01 4.225854e-02 6.002080e-01 161 154 155
1.880000e+02 2.560000e+02 1.668132e+01 -7.815736e-01 2.647038e-01 5.648668e-01 174 169 171
1.890000e+02 2.560000e+02 1.800703e+01 -7.585383e-01 4.100757e-01 5.064165e-01 174 168 171
1.900000e+02 2.560000e+02 1.945896e+01 -6.462658e-01 5.761474e-01 5.003946e-01 146 136 141
1.910000e+02 2.560000e+02 2.077701e+01 -5.326967e-01 6.572596e-01 5.331455e-01 89 83 86
1.920000e+02 2.560000e+02 2.178953e+01 -5.000761e-01 6.017429e-01 6.227595e-01 65 62 64
1.930000e+02 2.560000e+02 2.258775e+01 -4.857143e-01 5.203227e-01 7.023859e-01 75 72 73
1.940000e+02 2.560000e+02 2.323454e+01 -4.025944e-01 4.617098e-01 7.904061e-01 81 76 77
1.950000e+02 2.560000e+02 2.372070e+01 -3.221589e-01 4.516378e-01 8.320078e-01 85 79 79
1.960000e+02 2.560000e+02 2.408368e+01 -2.976184e-01 4.648368e-01 8.338765e-01 86 79 79
1.970000e+02 2.560000e+02 2.435075e+01 -2.673442e-01 4.055594e-01 8.740988e-01 83 76 76
1.980000e+02 2.560000e+02 2.453815e+01 -1.475225e-01 2.934715e-01 9.445166e-01 81 75 75
1.990000e+02 2.560000e+02 2.460125e+01 -5.726972e-03 1.875749e-01 9.822336e-01 85 78 77
2.000000e+02 2.560000e+02 2.456420e+01 -1.157796e-01 2.580459e-01 9.591701e-01 95 87 85
2.010000e+02 2.560000e+02 2.471090e+01 -3.272083e-01 4.029409e-01 8.547358e-01 119 109 107
2.020000e+02 2.560000e+02 2.511776e+01 -4.073209e-01 4.835363e-01 7.747789e-01 134 125 123
2.030000e+02 2.560000e+02 2.571007e+01 -5.148678e-01 5.859839e-01 6.257268e-01 148 139 135
2.040000e+02 2.560000e+02 2.655840e+01 -5.792346e-01 5.828666e-01 5.698717e-01 104 97 96
2.050000e+02 2.560000e+02 2.738992e+01 -5.601570e-01 4.911667e-01 6.670677e-01 81 77 77
2.060000e+02 2.560000e+02 2.804347e+01 -5.026113e-01 4.440852e-01 7.417346e-01 84 80 80
2.070000e+02 2.560000e+02 2.854762e+01 -4.013061e-01 4.049277e-01 8.215759e-01 82 78 79
2.080000e+02 2.560000e+02 2.887363e+01 -2.778157e-01 3.262892e-01 9.035230e-01 81 75 75
2.090000e+02 2.560000e+02 2.902904e+01 -7.425071e-02 2.086443e-01 9.751689e-01 84 75 76
2.100000e+02 2.560000e+02 2.906174e+01 -2.288974e-01 3.133640e-01 9.216339e-01 94 86 85
2.110000e+02 2.560000e+02 2.926519e+01 -3.502052e-01 4.058378e-01 8.441872e-01 90 83 82
2.120000e+02 2.560000e+02 2.948213e+01 -2.312107e-01 2.901394e-01 9.286338e-01 80 75 75
2.130000e+02 2.560000e+02 2.954695e+01 5.044155e-02 1.277459e-01 9.905234e-01 82 75 75
2.140000e+02 2.560000e+02 2.936441e+01 3.057882e-01 1.868443e-02 9.519162e-01 87 80 79
2.150000e+02 2.560000e+02 2.892835e+01 3.891785e-01 -4.256157e-02 9.201786e-01 92 85 83
2.160000e+02 2.560000e+02 2.836377e+01 2.525061e-02 1.966852e-01 9.801415e-01 99 91 90
2.170000e+02 2.560000e+02 2.824251e+01 -3.778874e-01 3.998055e-01 8.350788e-01 129 123 124
2.180000e+02 2.560000e+02 2.857883e+01 -7.255685e-01 2.910635e-01 6.235643e-01 136 132 133
2.190000e+02 2.560000e+02 2.944194e+01 -7.626307e-01 1.268282e-01 6.342784e-01 89 86 90
2.200000e+02 2.560000e+02 3.030435e+01 -4.107211e-01 2.297813e-01 8.823314e-01 79 75 76
2.210000e+02 2.560000e+02 3.060327e+01 -2.942962e-01 2.000262e-01 9.345476e-01 80 76 75
2.220000e+02 2.560000e+02 3.077647e+01 -2.559870e-01 1.773907e-01 9.502648e-01 82 75 76
2.230000e+02 2.560000e+02 3.091649e+01 -2.211983e-01 1.680483e-01 9.606410e-01 83 75 77
2.240000e+02 2.560000e+02 3.104307e+01 -1.983913e-01 1.841043e-01 9.626767e-01 82 76 76
2.250000e+02 2.560000e+02 3.115869e+01 -1.845339e-01 1.693418e-01 9.681274e-01 81 75 76
2.260000e+02 2.560000e+02 3.126378e+01 -1.675384e-01 1.732534e-01 9.705226e-01 82 76 75
2.270000e+02 2.560000e+02 3.135948e+01 -1.679122e-01 1.606586e-01 9.726224e-01 83 76 75
2.280000e+02 2.560000e+02 3.146664e+01 -1.522322e-01 1.664635e-01 9.742255e-01 82 75 76
2.290000e+02 2.560000e+02 3.157000e+01 -1.364978e-01 1.691435e-01 9.760937e-01 82 76 75
2.300000e+02 2.560000e+02 3.167564e+01 -1.102945e-01 1.733654e-01 9.786621e-01 81 76 75
2.310000e+02 2.560000e+02 3.176502e+01 -1.226701e-01 1.916179e-01 9.737734e-01 80 76 76
2.320000e+02 2.560000e+02 3.185262e+01 -7.755839e-02 1.988682e-01 9.769525e-01 80 76 74
2.330000e+02 2.560000e+02 3.190486e+01 -8.621536e-02 2.374429e-01 9.675680e-01 82 77 76
2.340000e+02 2.560000e+02 3.193901e+01 -1.604235e-01 2.298248e-01 9.599192e-01 81 75 76
2.350000e+02 2.560000e+02 3.205658e+01 -1.650899e-01 1.880376e-01 9.681876e-01 81 75 74
2.360000e+02 2.560000e+02 3.219475e+01 -1.486243e-01 1.626048e-01 9.754335e-01 82 74 74
2.370000e+02 2.560000e+02 3.232451e+01 -9.883685e-02 1.659356e-01 9.811711e-01 80 76 74
2.380000e+02 2.560000e+02 3.240836e+01 -1.093905e-01 1.591105e-01 9.811817e-01 82 76 75
2.390000e+02 2.560000e+02 3.250717e+01 -8.388348e-02 1.709062e-01 9.817100e-01 82 75 74
2.400000e+02 2.560000e+02 3.257787e+01 -6.553978e-02 2.074781e-01 9.760417e-01 80 75 74
2.410000e+02 2.560000e+02 3.261471e+01 -7.869439e-02 2.236090e-01 9.714969e-01 81 76 74
2.420000e+02 2.560000e+02 3.264997e+01 -6.608448e-02 2.113989e-01 9.751632e-01 80 75 73
2.430000e+02 2.560000e+02 3.269512e+01 -2.193092e-02 1.967832e-01 9.802017e-01 80 76 75
2.440000e+02 2.560000e+02 3.270845e+01 1.502275e-02 1.865403e-01 9.823324e-01 81 76 75
2.450000e+02 2.560000e+02 3.269178e+01 3.806641e-02 1.863955e-01 9.817371e-01 81 76 74
2.460000e+02 2.560000e+02 3.264279e+01 1.584452e-01 1.936855e-01 9.681844e-01 81 76 75
2.470000e+02 2.560000e+02 3.248107e+01 4.252232e-01 1.858952e-01 8.857924e-01 84 77 77
2.480000e+02 2.560000e+02 3.200488e+01 6.536408e-01 2.183010e-01 7.246367e-01 98 90 87
2.490000e+02 2.560000e+02 3.113544e+01 -4.208337e-02 4.823959e-01 8.749418e-01 96 90 89
2.500000e+02 2.560000e+02 3.117624e+01 -5.589287e-01 3.205581e-01 7.647491e-01 93 89 87
2.510000e+02 2.560000e+02 3.184450e+01 -3.555613e-01 2.016558e-01 9.126396e-01 80 73 73
2.520000e+02 2.560000e+02 3.221433e+01 5.587797e-03 2.058180e-01 9.785743e-01 80 74 73
2.530000e+02 2.560000e+02 3.221158e+01 1.206525e-01 1.985456e-01 9.726369e-01 82 76 75
2.540000e+02 2.560000e+02 3.209828e+01 1.838095e-01 1.975893e-01 9.628980e-01 82 76 76
2.550000e+02 2.560000e+02 3.191995e+01 2.472051e-01 2.105736e-01 9.458057e-01 82 77 76
2.560000e+02 2.560000e+02 3.167239e+01 3.833966e-01 1.884304e-01 9.041576e-01 84 78 78
2.570000e+02 2.560000e+02 3.128931e+01 5.563069e-01 2.065107e-01 8.049074e-01 91 84 82
2.580000e+02 2.560000e+02 3.065973e+01 4.171541e-01 4.057524e-01 8.132327e-01 96 86 82
2.590000e+02 2.560000e+02 3.015439e+01 -4.093051e-01 3.697342e-01 8.341259e-01 95 89 87
2.600000e+02 2.560000e+02 3.061591e+01 -3.548004e-01 2.309962e-01 9.059566e-01 82 76 75
2.610000e+02 2.560000e+02 3.099441e+01 3.255396e-04 2.297983e-01 9.732382e-01 81 74 73
2.620000e+02 2.560000e+02 3.099640e+01 1.365180e-01 2.436557e-01 9.602056e-01 84 76 75
2.630000e+02 2.560000e+02 3.086408e+01 1.701726e-01 2.327790e-01 9.575256e-01 84 77 75
2.640000e+02 2.560000e+02 3.069662e+01 1.671150e-01 2.160421e-01 9.619763e-01 83 77 76
2.650000e+02 2.560000e+02 3.053634e+01 1.666010e-01 2.460779e-01 9.548245e-01 83 77 77
2.660000e+02 2.560000e+02 3.036783e+01 1.497621e-01 2.624105e-01 9.532639e-01 83 76 78
2.670000e+02 2.560000e+02 3.021409e+01 1.133023e-01 2.732695e-01 9.552415e-01 84 77 75
2.680000e+02 2.560000e+02 3.011955e+01 6.840063e-02 2.450379e-01 9.670976e-01 84 77 75
2.690000e+02 2.560000e+02 3.007641e+01 7.697275e-02 2.082143e-01 9.750497e-01 82 76 75
2.700000e+02 2.560000e+02 3.003172e+01 7.667975e-02 2.111662e-01 9.744378e-01 82 76 75
2.710000e+02 2.560000e+02 2.998591e+01 7.779475e-02 2.407990e-01 9.674522e-01 84 76 76
2.720000e+02 2.560000e+02 2.992448e+01 9.640724e-02 2.532898e-01 9.625746e-01 82 75 75
2.730000e+02 2.560000e+02 2.984138e+01 1.245636e-01 2.748522e-01 9.533835e-01 82 76 75
2.740000e+02 2.560000e+02 2.973609e+01 1.595046e-01 3.076644e-01 9.380303e-01 83 75 75
2.750000e+02 2.560000e+02 2.958836e+01 2.382511e-01 3.057533e-01 9.218196e-01 82 75 75
2.760000e+02 2.560000e+02 2.936097e+01 2.990478e-01 3.217294e-01 8.983655e-01 83 75 75
2.770000e+02 2.560000e+02 2.907830e+01 3.932817e-01 3.643891e-01 8.441268e-01 84 77 75
2.780000e+02 2.560000e+02 2.869220e+01 5.086841e-01 4.188149e-01 7.522198e-01 86 79 78
2.790000e+02 2.560000e+02 2.809919e+01 6.060293e-01 5.248086e-01 5.977495e-01 100 91 91
2.800000e+02 2.560000e+02 2.717038e+01 4.020011e-01 6.834999e-01 6.092807e-01 123 111 108
2.810000e+02 2.560000e+02 2.654008e+01 5.151818e-02 6.244697e-01 7.793481e-01 105 98 96
2.820000e+02 2.560000e+02 2.650760e+01 -2.888035e-01 4.246924e-01 8.580378e-01 92 89 90
2.830000e+02 2.560000e+02 2.686792e+01 -3.480648e-01 3.988660e-01 8.483848e-01 89 85 86
2.840000e+02 2.560000e+02 2.728595e+01 -6.255960e-02 5.645351e-01 8.230349e-01 86 81 79
2.850000e+02 2.560000e+02 2.736842e+01 1.939518e-01 6.943963e-01 6.929621e-01 91 84 83
2.860000e+02 2.560000e+02 2.706094e+01 2.682466e-01 7.578637e-01 5.947154e-01 97 89 89
2.870000e+02 2.560000e+02 2.647049e+01 3.050491e-01 7.898802e-01 5.320096e-01 118 106 108
2.880000e+02 2.560000e+02 2.568060e+01 4.266065e-01 7.425389e-01 5.163748e-01 143 132 131
2.890000e+02 2.560000e+02 2.477437e+01 5.358580e-01 6.544263e-01 5.334627e-01 158 148 146
2.900000e+02 2.560000e+02 2.389338e+01 5.276122e-01 5.950983e-01 6.062041e-01 152 145 141
2.910000e+02 2.560000e+02 2.320148e+01 3.779745e-01 5.770770e-01 7.239595e-01 134 125 122
2.920000e+02 2.560000e+02 2.279443e+01 2.542969e-01 5.425724e-01 8.005925e-01 110 102 102
2.930000e+02 2.560000e+02 2.260358e+01 1.338824e-01 5.426885e-01 8.291952e-01 92 85 85
2.940000e+02 2.560000e+02 2.258081e+01 7.984218e-02 6.222742e-01 7.787169e-01 86 78 78
2.950000e+02 2.560000e+02 2.258118e+01 1.244990e-01 7.232435e-01 6.792781e-01 86 81 78
2.960000e+02 2.560000e+02 2.245557e+01 1.555823e-01 7.695396e-01 6.193569e-01 89 83 81
2.970000e+02 2.560000e+02 2.217098e+01 1.559161e-01 7.958317e-01 5.851001e-01 97 90 89
2.980000e+02 2.560000e+02 2.177981e+01 2.171631e-01 7.990431e-01 5.606874e-01 113 105 105
2.990000e+02 2.560000e+02 2.124939e+01 3.390090e-01 7.669696e-01 5.448215e-01 139 129 131
3.000000e+02 2.560000e+02 2.060073e+01 5.344870e-01 6.581823e-01 5.302072e-01 164 155 156
3.010000e+02 2.560000e+02 1.981452e+01 6.591706e-01 5.240730e-01 5.392973e-01 174 167 165
3.020000e+02 2.560000e+02 1.900355e+01 6.980452e-01 4.005525e-01 5.935408e-01 162 158 155
3.030000e+02 2.560000e+02 1.824206e+01 6.797566e-01 2.441168e-01 6.916198e-01 139 134 131
3.040000e+02 2.560000e+02 1.759849e+01 6.175521e-01 -6.485432e-02 7.838516e-01 115 111 109
3.050000e+02 2.560000e+02 1.709863e+01 3.986296e-01 -4.288728e-01 8.106556e-01 103 99 97
3.060000e+02 2.560000e+02 1.682103e+01 1.517689e-01 -6.675132e-01 7.289666e-01 104 101 99
3.070000e+02 2.560000e+02 1.679219e+01 1.989010e-02 -7.038151e-01 7.101047e-01 106 102 100
3.080000e+02 2.560000e+02 1.688550e+01 8.043169e-02 -6.257049e-01 7.759021e-01 99 93 91
3.090000e+02 2.560000e+02 1.690685e+01 2.527665e-01 -4.269878e-01 8.682111e-01 89 82 81
3.100000e+02 2.560000e+02 1.675534e+01 4.391658e-01 -8.580264e-02 8.942993e-01 83 76 75
3.110000e+02 2.560000e+02 1.639369e+01 5.384043e-01 2.090649e-01 8.163411e-01 83 78 76
3.120000e+02 2.560000e+02 1.581472e+01 6.326630e-01 3.136256e-01 7.080795e-01 86 80 78
3.130000e+02 2.560000e+02 1.500750e+01 6.594410e-01 3.893331e-01 6.430843e-01 88 83 81
3.140000e+02 2.560000e+02 1.408562e+01 6.833295e-01 4.303710e-01 5.897809e-01 91 85 82
3.150000e+02 2.560000e+02 1.305792e+01 6.975203e-01 4.604663e-01 5.490320e-01 93 86 84
3.160000e+02 2.560000e+02 1.191253e+01 7.078650e-01 4.889243e-01 5.097845e-01 93 87 83
3.170000e+02 2.560000e+02 1.065200e+01 7.434267e-01 4.799264e-01 4.658191e-01 90 85 81
3.180000e+02 2.560000e+02 9.192365e+00 7.636241e-01 4.735407e-01 4.389047e-01 87 81 77
3.190000e+02 2.560000e+02 7.539295e+00 7.908522e-01 4.578044e-01 4.061624e-01 80 74 71
3.200000e+02 2.560000e+02 5.569024e+00 8.140267e-01 4.407278e-01 3.783114e-01 74 69 66
3.210000e+02 2.560000e+02 3.170865e+00 8.428971e-01 4.053286e-01 3.538830e-01 70 64 60
1.770000e+02 2.570000e+02 3.592594e-02 -9.653624e-01 -1.618427e-01 2.046517e-01 4 4 4
1.780000e+02 2.570000e+02 3.112895e+00 -9.357757e-01 2.414109e-02 3.517685e-01 29 28 27
1.790000e+02 2.570000e+02 5.541922e+00 -8.906016e-01 1.212471e-01 4.383239e-01 54 54 53
1.800000e+02 2.570000e+02 7.470094e+00 -8.437339e-01 1.464578e-01 5.163944e-01 69 67 68
1.810000e+02 2.570000e+02 9.028282e+00 -8.029736e-01 1.227350e-01 5.832406e-01 81 78 78
1.820000e+02 2.570000e+02 1.035464e+01 -7.697564e-01 8.954000e-02 6.320267e-01 91 86 84
1.830000e+02 2.570000e+02 1.152114e+01 -7.497717e-01 5.944995e-02 6.590205e-01 97 92 91
1.840000e+02 2.570000e+02 1.257450e+01 -7.380037e-01 7.549480e-03 6.747544e-01 105 99 97
1.850000e+02 2.570000e+02 1.352528e+01 -7.266580e-01 -4.334125e-02 6.856309e-01 115 110 107
1.860000e+02 2.570000e+02 1.438855e+01 -7.181811e-01 -1.055958e-01 6.877975e-01 126 119 117
1.870000e+02 2.570000e+02 1.522443e+01 -7.298376e-01 -9.481372e-02 6.770136e-01 139 133 132
1.880000e+02 2.570000e+02 1.610010e+01 -7.624386e-01 6.847416e-03 6.470243e-01 153 145 146
1.890000e+02 2.570000e+02 1.713011e+01 -7.672007e-01 2.060898e-01 6.073961e-01 168 156 158
1.900000e+02 2.570000e+02 1.832180e+01 -7.203553e-01 4.191751e-01 5.526124e-01 183 170 168
1.910000e+02 2.570000e+02 1.959835e+01 -6.570980e-01 5.474409e-01 5.181995e-01 169 155 154
1.920000e+02 2.570000e+02 2.087493e+01 -5.263023e-01 6.617973e-01 5.338822e-01 111 103 104
1.930000e+02 2.570000e+02 2.188548e+01 -4.467926e-01 6.603544e-01 6.035797e-01 73 67 70
1.940000e+02 2.570000e+02 2.262697e+01 -4.248326e-01 5.579060e-01 7.129223e-01 71 66 68
1.950000e+02 2.570000e+02 2.317188e+01 -3.223284e-01 4.643578e-01 8.249098e-01 78 73 73
1.960000e+02 2.570000e+02 2.355681e+01 -2.348416e-01 4.563712e-01 8.582393e-01 84 80 79
1.970000e+02 2.570000e+02 2.387512e+01 -2.585732e-01 5.372121e-01 8.028344e-01 95 89 87
1.980000e+02 2.570000e+02 2.418290e+01 -2.226257e-01 5.746009e-01 7.875732e-01 91 85 84
1.990000e+02 2.570000e+02 2.434544e+01 -1.481433e-01 4.617491e-01 8.745521e-01 84 76 77
2.000000e+02 2.570000e+02 2.437855e+01 -6.651041e-02 3.326360e-01 9.407070e-01 86 78 79
2.010000e+02 2.570000e+02 2.443575e+01 -2.523100e-01 4.429335e-01 8.603195e-01 110 99 98
2.020000e+02 2.570000e+02 2.472525e+01 -3.148077e-01 4.693793e-01 8.249722e-01 122 112 110
2.030000e+02 2.570000e+02 2.514347e+01 -4.155904e-01 5.609786e-01 7.159523e-01 141 132 128
2.040000e+02 2.570000e+02 2.579736e+01 -4.985756e-01 6.369059e-01 5.880248e-01 143 133 129
2.050000e+02 2.570000e+02 2.664753e+01 -5.373793e-01 6.061944e-01 5.863035e-01 91 84 84
2.060000e+02 2.570000e+02 2.739149e+01 -5.168508e-01 5.173113e-01 6.820955e-01 81 76 76
2.070000e+02 2.570000e+02 2.799408e+01 -4.627670e-01 4.748786e-01 7.485566e-01 86 82 80
2.080000e+02 2.570000e+02 2.844079e+01 -3.606175e-01 4.337762e-01 8.257077e-01 83 76 77
2.090000e+02 2.570000e+02 2.869831e+01 -2.209095e-01 3.206921e-01 9.210622e-01 81 74 76
2.100000e+02 2.570000e+02 2.876676e+01 -7.484861e-02 2.210036e-01 9.723966e-01 86 78 79
2.110000e+02 2.570000e+02 2.883107e+01 -2.484470e-01 3.686774e-01 8.957405e-01 96 88 88
2.120000e+02 2.570000e+02 2.906160e+01 -3.766965e-01 4.086183e-01 8.313428e-01 91 85 86
2.130000e+02 2.570000e+02 2.929747e+01 -1.281279e-01 2.882851e-01 9.489336e-01 80 74 74
2.140000e+02 2.570000e+02 2.923750e+01 2.045422e-01 1.211810e-01 9.713278e-01 84 77 75
2.150000e+02 2.570000e+02 2.887086e+01 3.414558e-01 5.622069e-03 9.398810e-01 89 82 80
2.160000e+02 2.570000e+02 2.834389e+01 9.816452e-02 1.518548e-01 9.835161e-01 94 87 87
2.170000e+02 2.570000e+02 2.813022e+01 -3.193438e-01 3.570634e-01 8.777957e-01 119 115 114
2.180000e+02 2.570000e+02 2.833576e+01 -7.309472e-01 2.417885e-01 6.381649e-01 148 145 146
2.190000e+02 2.570000e+02 2.909599e+01 -8.506799e-01 6.944428e-02 5.210769e-01 112 110 114
2.200000e+02 2.570000e+02 3.007747e+01 -4.981730e-01 2.661739e-01 8.252122e-01 79 75 78
2.210000e+02 2.570000e+02 3.045911e+01 -3.272627e-01 2.837224e-01 9.013328e-01 80 76 76
2.220000e+02 2.570000e+02 3.065984e+01 -2.619079e-01 2.834160e-01 9.225398e-01 82 76 77
2.230000e+02 2.570000e+02 3.080565e+01 -2.262734e-01 2.800538e-01 9.329363e-01 82 76 75
2.240000e+02 2.570000e+02 3.093024e+01 -2.063355e-01 2.855510e-01 9.358880e-01 82 75 75
2.250000e+02 2.570000e+02 3.104780e+01 -1.788283e-01 2.736432e-01 9.450608e-01 81 75 74
2.260000e+02 2.570000e+02 3.114622e+01 -1.717028e-01 2.840890e-01 9.432982e-01 83 75 75
2.270000e+02 2.570000e+02 3.123299e+01 -1.818393e-01 2.907266e-01 9.393681e-01 84 75 75
2.280000e+02 2.570000e+02 3.132600e+01 -1.594405e-01 2.782544e-01 9.471817e-01 82 75 75
2.290000e+02 2.570000e+02 3.141543e+01 -1.601382e-01 2.518603e-01 9.544224e-01 82 75 75
2.300000e+02 2.570000e+02 3.152054e+01 -1.262919e-01 2.460856e-01 9.609850e-01 81 74 75
2.310000e+02 2.570000e+02 3.161064e+01 -9.280230e-02 2.647128e-01 9.598515e-01 83 75 74
2.320000e+02 2.570000e+02 3.168726e+01 -4.406210e-02 3.030574e-01 9.519531e-01 81 74 73
2.330000e+02 2.570000e+02 3.171000e+01 -2.301526e-02 3.685605e-01 9.293188e-01 84 77 76
2.340000e+02 2.570000e+02 3.167771e+01 -2.261756e-01 3.620509e-01 9.043029e-01 83 77 77
2.350000e+02 2.570000e+02 3.183689e+01 -2.221824e-01 2.804070e-01 9.338131e-01 81 74 74
2.360000e+02 2.570000e+02 3.201052e+01 -1.603936e-01 2.433868e-01 9.565755e-01 80 74 72
2.370000e+02 2.570000e+02 3.214574e+01 -1.144346e-01 2.679187e-01 9.566213e-01 80 74 74
2.380000e+02 2.570000e+02 3.223793e+01 -1.039021e-01 2.482530e-01 9.631068e-01 81 74 73
2.390000e+02 2.570000e+02 3.233524e+01 -6.293615e-02 2.726532e-01 9.600517e-01 81 73 73
2.400000e+02 2.570000e+02 3.239156e+01 1.722971e-03 3.104651e-01 9.505832e-01 80 74 73
2.410000e+02 2.570000e+02 3.237892e+01 -6.673800e-02 3.787204e-01 9.231018e-01 82 76 75
2.420000e+02 2.570000e+02 3.237434e+01 -1.331355e-01 3.265013e-01 9.357734e-01 82 75 74
2.430000e+02 2.570000e+02 3.244939e+01 -5.943244e-02 2.617277e-01 9.633101e-01 80 74 74
2.440000e+02 2.570000e+02 3.248569e+01 6.845970e-03 2.538582e-01 9.672172e-01 80 76 74
2.450000e+02 2.570000e+02 3.247843e+01 6.116156e-02 2.881715e-01 9.556236e-01 81 76 74
2.460000e+02 2.570000e+02 3.241091e+01 1.534945e-01 2.658475e-01 9.517166e-01 81 75 75
2.470000e+02 2.570000e+02 3.225133e+01 4.159488e-01 2.511486e-01 8.740200e-01 84 76 77
2.480000e+02 2.570000e+02 3.178657e+01 6.648960e-01 2.902269e-01 6.882453e-01 99 89 88
2.490000e+02 2.570000e+02 3.087112e+01 8.945607e-02 6.034351e-01 7.923785e-01 102 95 94
2.500000e+02 2.570000e+02 3.077953e+01 -5.351489e-01 3.941230e-01 7.471832e-01 93 89 89
2.510000e+02 2.570000e+02 3.145676e+01 -4.462079e-01 2.551293e-01 8.577922e-01 78 73 73
2.520000e+02 2.570000e+02 3.194363e+01 -3.334212e-02 2.673441e-01 9.630241e-01 79 73 73
2.530000e+02 2.570000e+02 3.198103e+01 1.151491e-01 2.631746e-01 9.578517e-01 81 74 74
2.540000e+02 2.570000e+02 3.187291e+01 1.846229e-01 2.542914e-01 9.493420e-01 82 75 75
