ply
format ascii 1.0
element vertex 523
property float x
property float y
property float z
property float nx
property float ny
property float nz
property uchar blue
property uchar green
property uchar red
end_header
2.760000e+02 5.600000e+01 -5.233145e+01 -1.972000e-01 -9.202778e-01 3.379363e-01 42 108 164
2.770000e+02 5.600000e+01 -5.178912e+01 -1.843674e-01 -9.171271e-01 3.533929e-01 42 109 164
2.780000e+02 5.600000e+01 -5.124737e+01 -1.709918e-01 -9.150572e-01 3.652837e-01 42 111 164
2.790000e+02 5.600000e+01 -5.078716e+01 -1.635436e-01 -9.152989e-01 3.680781e-01 43 113 166
2.800000e+02 5.600000e+01 -5.033225e+01 -1.418386e-01 -9.115812e-01 3.858776e-01 45 114 168
2.810000e+02 5.600000e+01 -4.999082e+01 -1.376924e-01 -9.077813e-01 3.961992e-01 47 116 172
2.820000e+02 5.600000e+01 -4.966279e+01 -1.273098e-01 -9.026975e-01 4.110102e-01 48 118 174
2.830000e+02 5.600000e+01 -4.931030e+01 -1.083242e-01 -8.993667e-01 4.235627e-01 47 120 175
2.840000e+02 5.600000e+01 -4.898205e+01 -7.249126e-02 -8.973776e-01 4.352683e-01 48 122 175
2.850000e+02 5.600000e+01 -4.875074e+01 -4.507187e-02 -8.959750e-01 4.418114e-01 49 122 176
2.860000e+02 5.600000e+01 -4.859535e+01 -3.627928e-02 -8.938364e-01 4.469232e-01 51 123 176
2.870000e+02 5.600000e+01 -4.848582e+01 -5.811763e-04 -8.860502e-01 4.635890e-01 49 118 170
2.880000e+02 5.600000e+01 -4.848028e+01 6.432024e-02 -8.840205e-01 4.630018e-01 52 121 174
2.890000e+02 5.600000e+01 -4.863992e+01 7.520223e-02 -8.846115e-01 4.602251e-01 52 123 176
2.900000e+02 5.600000e+01 -4.886268e+01 1.136628e-01 -8.844463e-01 4.525876e-01 55 124 181
2.910000e+02 5.600000e+01 -4.916740e+01 1.429017e-01 -8.757840e-01 4.610656e-01 55 124 178
2.920000e+02 5.600000e+01 -4.956102e+01 1.587063e-01 -8.638967e-01 4.780114e-01 54 121 178
2.930000e+02 5.600000e+01 -5.001617e+01 1.930041e-01 -8.639250e-01 4.651698e-01 55 122 182
2.940000e+02 5.600000e+01 -5.054463e+01 2.268573e-01 -8.621011e-01 4.531198e-01 55 122 182
2.950000e+02 5.600000e+01 -5.111657e+01 2.232439e-01 -8.587688e-01 4.611705e-01 54 121 180
2.960000e+02 5.600000e+01 -5.170445e+01 2.684885e-01 -8.451186e-01 4.622646e-01 53 119 179
2.970000e+02 5.600000e+01 -5.243459e+01 2.991709e-01 -8.457797e-01 4.417619e-01 54 118 180
2.980000e+02 5.600000e+01 -5.324521e+01 3.071869e-01 -8.387191e-01 4.496515e-01 55 114 173
2.990000e+02 5.600000e+01 -5.406465e+01 3.542740e-01 -8.319631e-01 4.269981e-01 53 112 168
3.000000e+02 5.600000e+01 -5.500435e+01 3.972185e-01 -8.142941e-01 4.232523e-01 54 116 174
3.010000e+02 5.600000e+01 -5.601754e+01 4.152181e-01 -8.034261e-01 4.267323e-01 52 118 178
3.020000e+02 5.600000e+01 -5.707023e+01 4.392670e-01 -8.013794e-01 4.059994e-01 51 122 180
3.030000e+02 5.600000e+01 -5.818856e+01 4.455251e-01 -7.956000e-01 4.105216e-01 52 122 181
3.040000e+02 5.600000e+01 -5.931118e+01 4.696707e-01 -7.847334e-01 4.044786e-01 51 119 181
3.050000e+02 5.600000e+01 -6.049934e+01 4.746534e-01 -7.875117e-01 3.931024e-01 52 122 183
3.060000e+02 5.600000e+01 -6.170722e+01 4.493177e-01 -7.796950e-01 4.361070e-01 51 119 184
3.070000e+02 5.600000e+01 -6.284076e+01 5.472571e-01 -7.222239e-01 4.229684e-01 51 121 189
3.080000e+02 5.600000e+01 -6.424373e+01 5.393357e-01 -7.510467e-01 3.808487e-01 53 124 195
3.090000e+02 5.600000e+01 -6.568733e+01 5.303725e-01 -7.533327e-01 3.888377e-01 53 121 196
3.100000e+02 5.600000e+01 -6.702625e+01 5.307513e-01 -7.462680e-01 4.017302e-01 52 120 194
3.110000e+02 5.600000e+01 -6.827707e+01 5.277048e-01 -7.443078e-01 4.093087e-01 50 119 192
3.120000e+02 5.600000e+01 -6.952955e+01 5.555375e-01 -7.271474e-01 4.032801e-01 50 120 195
3.130000e+02 5.600000e+01 -7.084565e+01 5.323689e-01 -7.437499e-01 4.042517e-01 50 125 199
3.140000e+02 5.600000e+01 -7.198152e+01 5.084360e-01 -7.238318e-01 4.664337e-01 47 123 197
3.150000e+02 5.600000e+01 -7.297220e+01 5.361125e-01 -6.894680e-01 4.870495e-01 46 123 201
3.160000e+02 5.600000e+01 -7.394518e+01 5.080436e-01 -6.633991e-01 5.493572e-01 44 120 198
3.170000e+02 5.600000e+01 -7.476184e+01 5.156427e-01 -5.933982e-01 6.180544e-01 43 119 200
3.180000e+02 5.600000e+01 -7.555294e+01 5.695525e-01 -5.110835e-01 6.437420e-01 47 129 207
3.190000e+02 5.600000e+01 -7.639857e+01 5.838596e-01 -4.446345e-01 6.792704e-01 52 139 211
3.200000e+02 5.600000e+01 -7.718313e+01 5.883907e-01 -4.002555e-01 7.025610e-01 55 142 208
3.210000e+02 5.600000e+01 -7.792508e+01 5.539724e-01 -3.565482e-01 7.523217e-01 58 145 209
3.220000e+02 5.600000e+01 -7.859400e+01 5.207982e-01 -2.909112e-01 8.025833e-01 64 147 206
3.230000e+02 5.600000e+01 -7.919100e+01 5.668527e-01 -2.808198e-01 7.744794e-01 64 142 197
3.240000e+02 5.600000e+01 -7.991744e+01 6.145251e-01 -2.952883e-01 7.315489e-01 57 134 190
3.250000e+02 5.600000e+01 -8.077655e+01 7.070613e-01 -2.640736e-01 6.559950e-01 53 126 182
3.260000e+02 5.600000e+01 -8.188947e+01 8.731566e-01 -2.631080e-01 4.103312e-01 49 110 158
2.590000e+02 5.700000e+01 -6.274604e+01 -2.944923e-01 -8.325180e-01 4.692421e-01 11 22 31
2.600000e+02 5.700000e+01 -6.227075e+01 -2.936482e-01 -9.043826e-01 3.096171e-01 20 42 59
2.610000e+02 5.700000e+01 -6.154585e+01 -3.037868e-01 -9.119101e-01 2.759231e-01 31 63 92
2.620000e+02 5.700000e+01 -6.067400e+01 -3.045800e-01 -9.144589e-01 2.664508e-01 38 80 119
2.630000e+02 5.700000e+01 -5.948624e+01 -2.886649e-01 -9.163219e-01 2.775368e-01 41 88 132
2.640000e+02 5.700000e+01 -5.851161e+01 -2.853771e-01 -9.179500e-01 2.755496e-01 42 92 142
2.650000e+02 5.700000e+01 -5.758739e+01 -2.937081e-01 -9.141195e-01 2.795013e-01 41 95 144
2.660000e+02 5.700000e+01 -5.664991e+01 -2.848263e-01 -9.171950e-01 2.786167e-01 40 96 146
2.670000e+02 5.700000e+01 -5.572460e+01 -2.761993e-01 -9.160693e-01 2.907420e-01 42 97 149
2.680000e+02 5.700000e+01 -5.490724e+01 -2.588784e-01 -9.229445e-01 2.848779e-01 44 101 153
2.690000e+02 5.700000e+01 -5.406347e+01 -2.356853e-01 -9.243425e-01 3.000724e-01 44 103 157
2.700000e+02 5.700000e+01 -5.324376e+01 -2.215605e-01 -9.225564e-01 3.159122e-01 44 105 160
2.710000e+02 5.700000e+01 -5.247383e+01 -2.138411e-01 -9.182520e-01 3.332944e-01 43 105 162
2.720000e+02 5.700000e+01 -5.184045e+01 -1.990959e-01 -9.222138e-01 3.314853e-01 41 106 163
2.730000e+02 5.700000e+01 -5.125134e+01 -1.881661e-01 -9.239680e-01 3.329815e-01 41 106 165
2.740000e+02 5.700000e+01 -5.069254e+01 -1.783497e-01 -9.234490e-01 3.397549e-01 40 108 166
2.750000e+02 5.700000e+01 -5.015213e+01 -1.859662e-01 -9.188485e-01 3.480432e-01 40 109 167
2.760000e+02 5.700000e+01 -4.958939e+01 -1.704319e-01 -9.183697e-01 3.571415e-01 41 111 165
2.770000e+02 5.700000e+01 -4.914051e+01 -1.527678e-01 -9.249196e-01 3.481173e-01 42 114 166
2.780000e+02 5.700000e+01 -4.868167e+01 -1.474040e-01 -9.197344e-01 3.638142e-01 43 114 166
2.790000e+02 5.700000e+01 -4.827028e+01 -1.230154e-01 -9.204557e-01 3.709832e-01 45 115 168
2.800000e+02 5.700000e+01 -4.792007e+01 -9.964761e-02 -9.164198e-01 3.876147e-01 46 116 172
2.810000e+02 5.700000e+01 -4.765163e+01 -9.157219e-02 -9.138067e-01 3.956917e-01 47 119 174
2.820000e+02 5.700000e+01 -4.741817e+01 -8.075981e-02 -9.154704e-01 3.941978e-01 48 120 176
2.830000e+02 5.700000e+01 -4.716853e+01 -6.713582e-02 -9.105499e-01 4.079113e-01 47 120 176
2.840000e+02 5.700000e+01 -4.694250e+01 -3.917540e-02 -9.057308e-01 4.220390e-01 49 120 174
2.850000e+02 5.700000e+01 -4.680214e+01 -1.862997e-02 -9.082412e-01 4.180320e-01 49 124 178
2.860000e+02 5.700000e+01 -4.669978e+01 -8.340193e-03 -9.020996e-01 4.314472e-01 49 123 176
2.870000e+02 5.700000e+01 -4.665242e+01 2.004684e-03 -8.934887e-01 4.490812e-01 48 119 173
2.880000e+02 5.700000e+01 -4.667913e+01 5.104863e-02 -8.885910e-01 4.558510e-01 50 120 176
2.890000e+02 5.700000e+01 -4.684026e+01 8.484789e-02 -8.853409e-01 4.571349e-01 51 122 178
2.900000e+02 5.700000e+01 -4.708216e+01 1.297176e-01 -8.835538e-01 4.500068e-01 55 125 181
2.910000e+02 5.700000e+01 -4.743432e+01 1.458953e-01 -8.804015e-01 4.512291e-01 59 126 179
2.920000e+02 5.700000e+01 -4.784955e+01 1.534822e-01 -8.746278e-01 4.598580e-01 61 124 178
2.930000e+02 5.700000e+01 -4.828492e+01 1.658649e-01 -8.730124e-01 4.586263e-01 61 124 179
2.940000e+02 5.700000e+01 -4.876614e+01 1.923645e-01 -8.717785e-01 4.505531e-01 58 122 178
2.950000e+02 5.700000e+01 -4.931447e+01 2.068067e-01 -8.635684e-01 4.598702e-01 54 119 177
2.960000e+02 5.700000e+01 -4.989556e+01 2.592943e-01 -8.521255e-01 4.545862e-01 52 120 178
2.970000e+02 5.700000e+01 -5.057579e+01 2.924975e-01 -8.460774e-01 4.456436e-01 52 118 178
2.980000e+02 5.700000e+01 -5.135292e+01 3.070054e-01 -8.413134e-01 4.449039e-01 53 117 178
2.990000e+02 5.700000e+01 -5.215159e+01 3.308570e-01 -8.408352e-01 4.284038e-01 55 117 177
3.000000e+02 5.700000e+01 -5.304084e+01 3.726296e-01 -8.287971e-01 4.174238e-01 52 119 179
3.010000e+02 5.700000e+01 -5.401761e+01 3.809908e-01 -8.224710e-01 4.223595e-01 50 118 179
3.020000e+02 5.700000e+01 -5.500907e+01 4.104559e-01 -8.163205e-01 4.063826e-01 50 119 178
3.030000e+02 5.700000e+01 -5.611204e+01 4.227378e-01 -8.088527e-01 4.087176e-01 51 123 179
3.040000e+02 5.700000e+01 -5.723455e+01 4.370884e-01 -8.048114e-01 4.015376e-01 51 121 178
3.050000e+02 5.700000e+01 -5.840969e+01 4.330380e-01 -8.080291e-01 3.994584e-01 50 120 179
3.060000e+02 5.700000e+01 -5.965402e+01 4.651417e-01 -7.941436e-01 3.911254e-01 51 120 182
3.070000e+02 5.700000e+01 -6.088917e+01 4.943417e-01 -7.814996e-01 3.806373e-01 52 120 185
3.080000e+02 5.700000e+01 -6.215423e+01 5.157805e-01 -7.722895e-01 3.708631e-01 54 123 189
3.090000e+02 5.700000e+01 -6.356363e+01 5.128149e-01 -7.733835e-01 3.726913e-01 52 120 188
3.100000e+02 5.700000e+01 -6.495229e+01 5.070766e-01 -7.738293e-01 3.795544e-01 52 121 189
3.110000e+02 5.700000e+01 -6.627818e+01 5.020612e-01 -7.690354e-01 3.956250e-01 52 120 189
3.120000e+02 5.700000e+01 -6.756338e+01 5.249725e-01 -7.649952e-01 3.730767e-01 51 119 191
3.130000e+02 5.700000e+01 -6.889939e+01 5.449539e-01 -7.575630e-01 3.593378e-01 50 121 193
3.140000e+02 5.700000e+01 -7.027635e+01 5.430571e-01 -7.472234e-01 3.830746e-01 50 121 193
3.150000e+02 5.700000e+01 -7.149622e+01 5.552050e-01 -7.271546e-01 4.037247e-01 49 121 198
3.160000e+02 5.700000e+01 -7.268024e+01 5.393759e-01 -7.063426e-01 4.584252e-01 45 118 192
3.170000e+02 5.700000e+01 -7.374209e+01 5.492497e-01 -6.494682e-01 5.258478e-01 43 113 187
3.180000e+02 5.700000e+01 -7.473620e+01 5.768627e-01 -6.063199e-01 5.473624e-01 45 126 199
3.190000e+02 5.700000e+01 -7.573044e+01 5.754018e-01 -5.550657e-01 6.006786e-01 48 134 205
3.200000e+02 5.700000e+01 -7.663022e+01 5.720513e-01 -5.003570e-01 6.499232e-01 48 136 203
3.210000e+02 5.700000e+01 -7.746038e+01 5.674460e-01 -4.598933e-01 6.830104e-01 53 143 211
3.220000e+02 5.700000e+01 -7.823959e+01 5.578598e-01 -4.086801e-01 7.223386e-01 62 151 213
3.230000e+02 5.700000e+01 -7.894501e+01 5.863146e-01 -3.570592e-01 7.271477e-01 66 148 205
3.240000e+02 5.700000e+01 -7.971723e+01 6.096807e-01 -3.289076e-01 7.211860e-01 60 136 194
3.250000e+02 5.700000e+01 -8.059103e+01 6.789401e-01 -3.126220e-01 6.643101e-01 52 128 183
3.260000e+02 5.700000e+01 -8.166695e+01 8.340952e-01 -2.896441e-01 4.694587e-01 50 119 169
3.270000e+02 5.700000e+01 -8.356889e+01 9.220510e-01 -2.866870e-01 2.600626e-01 31 70 95
2.560000e+02 5.800000e+01 -6.287498e+01 -2.344009e-01 -8.092293e-01 5.387061e-01 10 18 23
2.570000e+02 5.800000e+01 -6.249425e+01 -3.257565e-01 -8.785319e-01 3.493771e-01 18 34 47
2.580000e+02 5.800000e+01 -6.173505e+01 -3.336287e-01 -9.004245e-01 2.791550e-01 27 56 81
2.590000e+02 5.800000e+01 -6.081957e+01 -3.363697e-01 -9.048629e-01 2.609187e-01 36 74 111
2.600000e+02 5.800000e+01 -5.947605e+01 -3.302325e-01 -9.085784e-01 2.557964e-01 42 87 131
2.610000e+02 5.800000e+01 -5.829324e+01 -3.263124e-01 -9.097576e-01 2.566348e-01 42 93 141
2.620000e+02 5.800000e+01 -5.717043e+01 -3.307507e-01 -9.046898e-01 2.685896e-01 43 97 144
2.630000e+02 5.800000e+01 -5.609161e+01 -3.061795e-01 -9.094943e-01 2.812014e-01 42 97 145
2.640000e+02 5.800000e+01 -5.513293e+01 -2.949265e-01 -9.132377e-01 2.810966e-01 42 99 148
2.650000e+02 5.800000e+01 -5.420662e+01 -2.844482e-01 -9.161275e-01 2.824883e-01 42 100 151
2.660000e+02 5.800000e+01 -5.327397e+01 -2.737780e-01 -9.157209e-01 2.941102e-01 44 102 154
2.670000e+02 5.800000e+01 -5.243728e+01 -2.522201e-01 -9.217339e-01 2.946043e-01 44 104 158
2.680000e+02 5.800000e+01 -5.158968e+01 -2.433167e-01 -9.172522e-01 3.153495e-01 45 106 161
2.690000e+02 5.800000e+01 -5.086754e+01 -2.203329e-01 -9.207931e-01 3.218595e-01 44 108 164
2.700000e+02 5.800000e+01 -5.020579e+01 -1.998381e-01 -9.247288e-01 3.239465e-01 43 110 165
2.710000e+02 5.800000e+01 -4.951503e+01 -2.058817e-01 -9.084551e-01 3.637609e-01 41 110 167
2.720000e+02 5.800000e+01 -4.892523e+01 -1.813876e-01 -9.138837e-01 3.632013e-01 39 108 165
2.730000e+02 5.800000e+01 -4.842985e+01 -1.641885e-01 -9.231868e-01 3.475173e-01 41 111 166
2.740000e+02 5.800000e+01 -4.796111e+01 -1.636064e-01 -9.253980e-01 3.418648e-01 43 113 168
2.750000e+02 5.800000e+01 -4.746927e+01 -1.704949e-01 -9.229960e-01 3.449781e-01 43 113 167
2.760000e+02 5.800000e+01 -4.694575e+01 -1.633472e-01 -9.178380e-01 3.617888e-01 43 112 166
2.770000e+02 5.800000e+01 -4.647839e+01 -1.399197e-01 -9.225220e-01 3.596882e-01 43 115 167
2.780000e+02 5.800000e+01 -4.608040e+01 -1.212710e-01 -9.158277e-01 3.828224e-01 45 115 168
2.790000e+02 5.800000e+01 -4.577208e+01 -9.758416e-02 -9.209688e-01 3.772185e-01 47 116 171
2.800000e+02 5.800000e+01 -4.550074e+01 -7.604533e-02 -9.175641e-01 3.902476e-01 47 116 173
2.810000e+02 5.800000e+01 -4.528527e+01 -5.116099e-02 -9.176694e-01 3.940374e-01 47 118 176
2.820000e+02 5.800000e+01 -4.508598e+01 -4.760967e-02 -9.108243e-01 4.100395e-01 45 117 176
2.830000e+02 5.800000e+01 -4.493608e+01 -4.694963e-02 -9.086730e-01 4.148603e-01 46 119 177
2.840000e+02 5.800000e+01 -4.481009e+01 -1.955939e-02 -9.103595e-01 4.133558e-01 48 124 177
2.850000e+02 5.800000e+01 -4.472748e+01 -1.779839e-03 -9.116330e-01 4.110013e-01 50 124 178
2.860000e+02 5.800000e+01 -4.469470e+01 7.574422e-03 -9.044552e-01 4.265015e-01 50 123 177
2.870000e+02 5.800000e+01 -4.469770e+01 3.959631e-02 -8.875231e-01 4.590586e-01 50 121 174
2.880000e+02 5.800000e+01 -4.481388e+01 8.261310e-02 -8.895282e-01 4.493491e-01 52 123 176
2.890000e+02 5.800000e+01 -4.502025e+01 1.068338e-01 -8.849500e-01 4.532659e-01 55 125 181
2.900000e+02 5.800000e+01 -4.528859e+01 1.230845e-01 -8.838132e-01 4.513583e-01 58 126 181
2.910000e+02 5.800000e+01 -4.562857e+01 1.458953e-01 -8.804015e-01 4.512291e-01 62 126 179
2.920000e+02 5.800000e+01 -4.603801e+01 1.653682e-01 -8.762886e-01 4.525171e-01 66 125 178
2.930000e+02 5.800000e+01 -4.649356e+01 1.638391e-01 -8.799802e-01 4.458606e-01 68 125 179
2.940000e+02 5.800000e+01 -4.695927e+01 1.678641e-01 -8.710425e-01 4.616346e-01 64 123 178
2.950000e+02 5.800000e+01 -4.748213e+01 1.986911e-01 -8.620677e-01 4.662199e-01 57 120 177
2.960000e+02 5.800000e+01 -4.806566e+01 2.421877e-01 -8.563194e-01 4.561384e-01 52 120 176
2.970000e+02 5.800000e+01 -4.872556e+01 2.695595e-01 -8.523322e-01 4.481825e-01 51 119 180
2.980000e+02 5.800000e+01 -4.944686e+01 3.024448e-01 -8.402932e-01 4.499272e-01 52 120 180
2.990000e+02 5.800000e+01 -5.022419e+01 3.151903e-01 -8.408136e-01 4.400995e-01 51 119 181
3.000000e+02 5.800000e+01 -5.105370e+01 3.254199e-01 -8.331849e-01 4.471071e-01 49 118 181
3.010000e+02 5.800000e+01 -5.194341e+01 3.669600e-01 -8.256518e-01 4.285318e-01 51 119 180
3.020000e+02 5.800000e+01 -5.291678e+01 3.955199e-01 -8.229431e-01 4.078341e-01 54 120 179
3.030000e+02 5.800000e+01 -5.399700e+01 4.046242e-01 -8.200195e-01 4.047806e-01 52 119 179
3.040000e+02 5.800000e+01 -5.509647e+01 4.103334e-01 -8.193106e-01 4.004455e-01 52 121 181
3.050000e+02 5.800000e+01 -5.623052e+01 4.256945e-01 -8.102865e-01 4.027653e-01 52 122 180
3.060000e+02 5.800000e+01 -5.741497e+01 4.350037e-01 -8.068353e-01 3.997356e-01 51 120 181
3.070000e+02 5.800000e+01 -5.861678e+01 4.529012e-01 -7.988114e-01 3.959556e-01 50 118 179
3.080000e+02 5.800000e+01 -5.989383e+01 4.806540e-01 -7.963676e-01 3.671109e-01 51 123 183
3.090000e+02 5.800000e+01 -6.129146e+01 4.887973e-01 -7.898798e-01 3.703609e-01 52 123 182
3.100000e+02 5.800000e+01 -6.269348e+01 5.062109e-01 -7.843092e-01 3.586219e-01 51 118 180
3.110000e+02 5.800000e+01 -6.411572e+01 4.980463e-01 -7.898179e-01 3.579631e-01 53 121 183
3.120000e+02 5.800000e+01 -6.541165e+01 4.991569e-01 -7.811495e-01 3.750306e-01 52 117 185
3.130000e+02 5.800000e+01 -6.671938e+01 5.309312e-01 -7.655005e-01 3.634846e-01 51 118 182
3.140000e+02 5.800000e+01 -6.817335e+01 5.453593e-01 -7.602588e-01 3.529729e-01 52 118 181
3.150000e+02 5.800000e+01 -6.962039e+01 5.428345e-01 -7.583018e-01 3.609835e-01 52 118 184
3.160000e+02 5.800000e+01 -7.102353e+01 5.655172e-01 -7.334532e-01 3.771429e-01 51 123 191
3.170000e+02 5.800000e+01 -7.238781e+01 5.794648e-01 -7.032688e-01 4.118659e-01 48 122 193
3.180000e+02 5.800000e+01 -7.361009e+01 5.898993e-01 -6.752973e-01 4.427103e-01 47 125 199
3.190000e+02 5.800000e+01 -7.479763e+01 5.884495e-01 -6.360068e-01 4.992219e-01 47 127 199
3.200000e+02 5.800000e+01 -7.588035e+01 5.535467e-01 -6.126705e-01 5.641107e-01 46 129 199
3.210000e+02 5.800000e+01 -7.680455e+01 5.667343e-01 -5.601626e-01 6.041772e-01 49 136 206
3.220000e+02 5.800000e+01 -7.770451e+01 5.756787e-01 -5.011444e-01 6.461024e-01 53 144 213
3.230000e+02 5.800000e+01 -7.855434e+01 5.918522e-01 -4.406144e-01 6.749592e-01 58 147 213
3.240000e+02 5.800000e+01 -7.940742e+01 6.118436e-01 -3.912294e-01 6.874496e-01 59 139 199
3.250000e+02 5.800000e+01 -8.031167e+01 6.601616e-01 -3.648887e-01 6.565386e-01 52 127 185
3.260000e+02 5.800000e+01 -8.135252e+01 7.748716e-01 -3.501620e-01 5.262704e-01 50 121 176
3.270000e+02 5.800000e+01 -8.287458e+01 9.000774e-01 -3.326511e-01 2.814318e-01 42 92 128
2.540000e+02 5.900000e+01 -6.279526e+01 -3.356305e-01 -8.243454e-01 4.558583e-01 12 24 31
2.550000e+02 5.900000e+01 -6.213956e+01 -3.283531e-01 -8.906669e-01 3.144786e-01 24 47 65
2.560000e+02 5.900000e+01 -6.131843e+01 -3.316981e-01 -9.116399e-01 2.426708e-01 35 69 100
2.570000e+02 5.900000e+01 -5.993577e+01 -3.525036e-01 -9.017585e-01 2.501456e-01 41 84 123
2.580000e+02 5.900000e+01 -5.850115e+01 -3.498514e-01 -9.011942e-01 2.558379e-01 42 93 136
2.590000e+02 5.900000e+01 -5.723350e+01 -3.286855e-01 -9.086821e-01 2.574153e-01 43 96 141
2.600000e+02 5.900000e+01 -5.594437e+01 -3.377940e-01 -9.007288e-01 2.730984e-01 43 98 144
2.610000e+02 5.900000e+01 -5.476759e+01 -3.306282e-01 -9.000313e-01 2.839518e-01 43 100 146
2.620000e+02 5.900000e+01 -5.371485e+01 -3.096330e-01 -9.038022e-01 2.954134e-01 43 102 151
2.630000e+02 5.900000e+01 -5.277578e+01 -2.972984e-01 -9.083097e-01 2.942569e-01 45 103 153
2.640000e+02 5.900000e+01 -5.184598e+01 -2.980585e-01 -9.088338e-01 2.918600e-01 45 105 157
2.650000e+02 5.900000e+01 -5.090304e+01 -2.829344e-01 -9.089008e-01 3.063454e-01 44 107 162
2.660000e+02 5.900000e+01 -5.005944e+01 -2.499718e-01 -9.181164e-01 3.075326e-01 44 111 163
2.670000e+02 5.900000e+01 -4.926094e+01 -2.443018e-01 -9.141417e-01 3.235143e-01 45 109 162
2.680000e+02 5.900000e+01 -4.857554e+01 -2.231390e-01 -9.170300e-01 3.305524e-01 44 110 164
2.690000e+02 5.900000e+01 -4.793091e+01 -2.085560e-01 -9.166391e-01 3.409943e-01 43 112 166
2.700000e+02 5.900000e+01 -4.733569e+01 -1.899924e-01 -9.190916e-01 3.452152e-01 42 114 167
2.710000e+02 5.900000e+01 -4.681185e+01 -1.934001e-01 -9.095125e-01 3.679448e-01 41 113 168
2.720000e+02 5.900000e+01 -4.627018e+01 -1.785647e-01 -9.143976e-01 3.633066e-01 41 112 167
2.730000e+02 5.900000e+01 -4.573120e+01 -1.645118e-01 -9.175570e-01 3.619738e-01 42 113 168
2.740000e+02 5.900000e+01 -4.525803e+01 -1.663550e-01 -9.194740e-01 3.562213e-01 43 115 168
2.750000e+02 5.900000e+01 -4.476643e+01 -1.519913e-01 -9.175240e-01 3.674893e-01 46 116 168
2.760000e+02 5.900000e+01 -4.432767e+01 -1.454593e-01 -9.127787e-01 3.816761e-01 46 116 169
2.770000e+02 5.900000e+01 -4.390169e+01 -1.241900e-01 -9.102818e-01 3.949226e-01 47 119 172
2.780000e+02 5.900000e+01 -4.360558e+01 -1.090092e-01 -9.108761e-01 3.980223e-01 47 118 172
2.790000e+02 5.900000e+01 -4.333544e+01 -9.204043e-02 -9.145871e-01 3.937754e-01 48 119 173
2.800000e+02 5.900000e+01 -4.310396e+01 -5.667520e-02 -9.127346e-01 4.046028e-01 48 121 178
2.810000e+02 5.900000e+01 -4.294819e+01 -4.457151e-02 -9.119787e-01 4.078091e-01 47 122 178
2.820000e+02 5.900000e+01 -4.282524e+01 -3.999197e-02 -9.081429e-01 4.167458e-01 45 121 175
2.830000e+02 5.900000e+01 -4.272536e+01 -2.124595e-02 -9.112631e-01 4.112764e-01 46 122 178
2.840000e+02 5.900000e+01 -4.264435e+01 8.562395e-04 -9.108154e-01 4.128131e-01 48 122 177
2.850000e+02 5.900000e+01 -4.260352e+01 1.842019e-02 -9.036726e-01 4.278277e-01 50 122 175
2.860000e+02 5.900000e+01 -4.265021e+01 3.318195e-02 -8.986966e-01 4.373138e-01 51 122 176
2.870000e+02 5.900000e+01 -4.275503e+01 7.558330e-02 -8.887604e-01 4.520976e-01 52 123 174
2.880000e+02 5.900000e+01 -4.292951e+01 9.964574e-02 -8.904128e-01 4.441124e-01 55 125 175
2.890000e+02 5.900000e+01 -4.317605e+01 1.151444e-01 -8.856341e-01 4.498821e-01 59 126 174
2.900000e+02 5.900000e+01 -4.346495e+01 1.251233e-01 -8.845724e-01 4.493060e-01 60 126 174
2.910000e+02 5.900000e+01 -4.380405e+01 1.370971e-01 -8.811337e-01 4.525570e-01 60 124 176
2.920000e+02 5.900000e+01 -4.419040e+01 1.555785e-01 -8.737037e-01 4.609091e-01 59 123 177
2.930000e+02 5.900000e+01 -4.463317e+01 1.601768e-01 -8.745193e-01 4.577766e-01 59 123 177
2.940000e+02 5.900000e+01 -4.512679e+01 1.954193e-01 -8.704985e-01 4.517120e-01 61 125 180
2.950000e+02 5.900000e+01 -4.567610e+01 2.177446e-01 -8.593342e-01 4.627440e-01 58 123 179
2.960000e+02 5.900000e+01 -4.626810e+01 2.219510e-01 -8.643235e-01 4.513122e-01 55 125 178
2.970000e+02 5.900000e+01 -4.688528e+01 2.510918e-01 -8.578710e-01 4.483417e-01 53 124 179
2.980000e+02 5.900000e+01 -4.757833e+01 2.937811e-01 -8.434737e-01 4.497163e-01 54 123 181
2.990000e+02 5.900000e+01 -4.834367e+01 2.926825e-01 -8.426911e-01 4.518945e-01 53 121 184
3.000000e+02 5.900000e+01 -4.913671e+01 3.118613e-01 -8.353167e-01 4.527566e-01 51 120 183
3.010000e+02 5.900000e+01 -4.995261e+01 3.313678e-01 -8.308549e-01 4.470743e-01 52 120 178
3.020000e+02 5.900000e+01 -5.083481e+01 3.646494e-01 -8.252025e-01 4.313603e-01 51 118 177
3.030000e+02 5.900000e+01 -5.184470e+01 3.809187e-01 -8.276847e-01 4.121152e-01 52 118 179
3.040000e+02 5.900000e+01 -5.290866e+01 4.060237e-01 -8.167163e-01 4.100235e-01 51 117 178
3.050000e+02 5.900000e+01 -5.404551e+01 4.189660e-01 -8.160338e-01 3.981914e-01 54 121 181
3.060000e+02 5.900000e+01 -5.521268e+01 4.189504e-01 -8.178308e-01 3.945039e-01 52 120 182
3.070000e+02 5.900000e+01 -5.637926e+01 4.392614e-01 -8.020318e-01 4.047154e-01 50 119 180
3.080000e+02 5.900000e+01 -5.760954e+01 4.487155e-01 -8.109741e-01 3.754669e-01 51 123 182
3.090000e+02 5.900000e+01 -5.896377e+01 4.686465e-01 -8.058494e-01 3.619077e-01 51 123 182
3.100000e+02 5.900000e+01 -6.033700e+01 4.909402e-01 -7.950554e-01 3.561807e-01 49 118 179
3.110000e+02 5.900000e+01 -6.174843e+01 4.986061e-01 -7.921912e-01 3.518880e-01 52 119 181
3.120000e+02 5.900000e+01 -6.316488e+01 5.025811e-01 -7.887151e-01 3.540349e-01 52 118 180
3.130000e+02 5.900000e+01 -6.452518e+01 5.115132e-01 -7.807935e-01 3.587698e-01 49 114 174
3.140000e+02 5.900000e+01 -6.593087e+01 5.258662e-01 -7.735511e-01 3.536713e-01 52 121 179
3.150000e+02 5.900000e+01 -6.743317e+01 5.285395e-01 -7.655108e-01 3.669322e-01 53 120 181
3.160000e+02 5.900000e+01 -6.895054e+01 5.686624e-01 -7.440482e-01 3.507355e-01 52 121 185
3.170000e+02 5.900000e+01 -7.055725e+01 5.808562e-01 -7.367491e-01 3.461312e-01 51 122 190
3.180000e+02 5.900000e+01 -7.204171e+01 6.020794e-01 -7.091721e-01 3.668451e-01 50 122 194
3.190000e+02 5.900000e+01 -7.349303e+01 6.026931e-01 -6.889996e-01 4.025427e-01 48 123 195
3.200000e+02 5.900000e+01 -7.480270e+01 5.625481e-01 -6.746726e-01 4.778667e-01 47 124 195
3.210000e+02 5.900000e+01 -7.588806e+01 5.945555e-01 -6.093100e-01 5.246380e-01 47 128 195
3.220000e+02 5.900000e+01 -7.697512e+01 5.986025e-01 -5.509054e-01 5.815309e-01 48 134 200
3.230000e+02 5.900000e+01 -7.800409e+01 5.836309e-01 -5.205914e-01 6.231850e-01 50 138 205
3.240000e+02 5.900000e+01 -7.896210e+01 6.023130e-01 -4.682059e-01 6.465310e-01 51 138 201
3.250000e+02 5.900000e+01 -7.993197e+01 6.115469e-01 -4.395084e-01 6.579078e-01 51 130 190
3.260000e+02 5.900000e+01 -8.093320e+01 6.980758e-01 -4.414400e-01 5.637560e-01 52 123 181
3.270000e+02 5.900000e+01 -8.221477e+01 8.647843e-01 -3.843086e-01 3.231950e-01 50 109 155
2.520000e+02 6.000000e+01 -6.282272e+01 -3.445849e-01 -8.514878e-01 3.952591e-01 14 29 39
2.530000e+02 6.000000e+01 -6.207608e+01 -3.444582e-01 -9.005873e-01 2.651246e-01 27 54 75
2.540000e+02 6.000000e+01 -6.090636e+01 -3.697194e-01 -8.961531e-01 2.453919e-01 37 76 110
2.550000e+02 6.000000e+01 -5.925364e+01 -3.697676e-01 -8.932859e-01 2.555623e-01 42 89 131
2.560000e+02 6.000000e+01 -5.768401e+01 -3.801400e-01 -8.879279e-01 2.589934e-01 43 94 138
2.570000e+02 6.000000e+01 -5.625576e+01 -3.794753e-01 -8.860845e-01 2.661818e-01 44 98 143
2.580000e+02 6.000000e+01 -5.484454e+01 -3.611442e-01 -8.848021e-01 2.944490e-01 43 102 147
2.590000e+02 6.000000e+01 -5.369300e+01 -3.421753e-01 -8.946373e-01 2.872981e-01 43 102 147
2.600000e+02 6.000000e+01 -5.259297e+01 -3.319898e-01 -8.962290e-01 2.942047e-01 43 103 151
2.610000e+02 6.000000e+01 -5.155764e+01 -3.304372e-01 -8.961126e-01 2.962997e-01 43 106 155
2.620000e+02 6.000000e+01 -5.057733e+01 -3.098295e-01 -9.028562e-01 2.980879e-01 44 108 158
2.630000e+02 6.000000e+01 -4.964393e+01 -3.070581e-01 -9.033407e-01 2.994845e-01 46 108 161
2.640000e+02 6.000000e+01 -4.870026e+01 -2.773711e-01 -9.086876e-01 3.120129e-01 47 113 164
2.650000e+02 6.000000e+01 -4.787577e+01 -2.797118e-01 -9.048508e-01 3.209460e-01 46 114 167
2.660000e+02 6.000000e+01 -4.704668e+01 -2.544129e-01 -9.061852e-01 3.377906e-01 45 113 165
2.670000e+02 6.000000e+01 -4.633900e+01 -2.331852e-01 -9.050488e-01 3.556843e-01 44 112 164
2.680000e+02 6.000000e+01 -4.574172e+01 -2.009430e-01 -9.166605e-01 3.454785e-01 43 113 166
2.690000e+02 6.000000e+01 -4.518744e+01 -2.034377e-01 -9.141062e-01 3.507464e-01 43 114 166
2.700000e+02 6.000000e+01 -4.464912e+01 -1.968125e-01 -9.146474e-01 3.531076e-01 43 116 165
2.710000e+02 6.000000e+01 -4.417826e+01 -1.836245e-01 -9.150661e-01 3.590768e-01 44 116 167
2.720000e+02 6.000000e+01 -4.364554e+01 -1.697331e-01 -9.140230e-01 3.684463e-01 43 115 167
2.730000e+02 6.000000e+01 -4.312836e+01 -1.493057e-01 -9.123314e-01 3.812601e-01 43 115 166
2.740000e+02 6.000000e+01 -4.268569e+01 -1.507471e-01 -9.145148e-01 3.754172e-01 48 118 171
2.750000e+02 6.000000e+01 -4.224768e+01 -1.420741e-01 -9.079246e-01 3.943196e-01 50 120 175
2.760000e+02 6.000000e+01 -4.188483e+01 -1.331814e-01 -9.064321e-01 4.008035e-01 50 120 174
2.770000e+02 6.000000e+01 -4.152655e+01 -1.099054e-01 -9.031222e-01 4.150796e-01 49 121 177
2.780000e+02 6.000000e+01 -4.125506e+01 -9.840133e-02 -9.037373e-01 4.166247e-01 48 120 176
2.790000e+02 6.000000e+01 -4.101882e+01 -9.065237e-02 -9.070427e-01 4.111637e-01 48 120 173
2.800000e+02 6.000000e+01 -4.082354e+01 -5.640053e-02 -9.072435e-01 4.168071e-01 49 122 176
2.810000e+02 6.000000e+01 -4.070246e+01 -4.182692e-02 -9.069444e-01 4.191687e-01 47 120 175
2.820000e+02 6.000000e+01 -4.059879e+01 -2.547081e-02 -9.007748e-01 4.335390e-01 48 121 176
2.830000e+02 6.000000e+01 -4.051422e+01 -3.555189e-03 -8.975175e-01 4.409646e-01 49 121 175
2.840000e+02 6.000000e+01 -4.048847e+01 1.228347e-02 -8.942497e-01 4.473997e-01 49 120 174
2.850000e+02 6.000000e+01 -4.053456e+01 3.269957e-02 -8.923518e-01 4.501543e-01 51 121 176
2.860000e+02 6.000000e+01 -4.064214e+01 4.496587e-02 -8.886610e-01 4.563548e-01 53 123 177
2.870000e+02 6.000000e+01 -4.079937e+01 8.654248e-02 -8.891394e-01 4.493791e-01 55 124 178
2.880000e+02 6.000000e+01 -4.100744e+01 1.196308e-01 -8.838305e-01 4.522523e-01 55 124 178
2.890000e+02 6.000000e+01 -4.130594e+01 1.075245e-01 -8.852429e-01 4.525300e-01 57 122 176
2.900000e+02 6.000000e+01 -4.160434e+01 1.197195e-01 -8.788040e-01 4.619208e-01 57 122 175
2.910000e+02 6.000000e+01 -4.195922e+01 1.298897e-01 -8.791956e-01 4.584144e-01 55 121 178
2.920000e+02 6.000000e+01 -4.235567e+01 1.511741e-01 -8.730775e-01 4.635538e-01 54 120 177
2.930000e+02 6.000000e+01 -4.279322e+01 1.707574e-01 -8.680350e-01 4.662158e-01 53 121 177
2.940000e+02 6.000000e+01 -4.328738e+01 1.938211e-01 -8.671713e-01 4.587454e-01 55 122 178
2.950000e+02 6.000000e+01 -4.385249e+01 2.146944e-01 -8.656942e-01 4.521946e-01 57 124 179
2.960000e+02 6.000000e+01 -4.443671e+01 2.129595e-01 -8.658802e-01 4.526585e-01 54 121 180
2.970000e+02 6.000000e+01 -4.502736e+01 2.555946e-01 -8.504568e-01 4.597766e-01 52 120 179
2.980000e+02 6.000000e+01 -4.572196e+01 2.777382e-01 -8.450197e-01 4.569499e-01 51 122 179
2.990000e+02 6.000000e+01 -4.647296e+01 2.934094e-01 -8.431171e-01 4.506268e-01 52 122 180
3.000000e+02 6.000000e+01 -4.725732e+01 2.966458e-01 -8.430321e-01 4.486627e-01 51 121 182
3.010000e+02 6.000000e+01 -4.802461e+01 3.215839e-01 -8.222730e-01 4.695220e-01 50 118 176
3.020000e+02 6.000000e+01 -4.885140e+01 3.378024e-01 -8.268887e-01 4.496050e-01 51 119 179
3.030000e+02 6.000000e+01 -4.975494e+01 3.664840e-01 -8.193238e-01 4.409059e-01 49 116 179
3.040000e+02 6.000000e+01 -5.077598e+01 3.839535e-01 -8.222136e-01 4.201719e-01 50 121 180
3.050000e+02 6.000000e+01 -5.185941e+01 3.898880e-01 -8.250187e-01 4.090617e-01 52 121 179
3.060000e+02 6.000000e+01 -5.296338e+01 4.105241e-01 -8.158358e-01 4.072859e-01 51 120 179
3.070000e+02 6.000000e+01 -5.414136e+01 4.382553e-01 -8.088510e-01 3.920363e-01 50 121 180
3.080000e+02 6.000000e+01 -5.534891e+01 4.413177e-01 -8.113165e-01 3.834113e-01 52 121 180
3.090000e+02 6.000000e+01 -5.662591e+01 4.581467e-01 -8.090935e-01 3.680615e-01 50 118 180
3.100000e+02 6.000000e+01 -5.798080e+01 4.700857e-01 -8.099954e-01 3.506092e-01 50 120 182
3.110000e+02 6.000000e+01 -5.936507e+01 4.904403e-01 -7.960458e-01 3.546539e-01 51 120 182
3.120000e+02 6.000000e+01 -6.081200e+01 4.796273e-01 -8.077291e-01 3.428284e-01 50 120 180
3.130000e+02 6.000000e+01 -6.222066e+01 4.863245e-01 -7.904372e-01 3.724213e-01 47 108 168
3.140000e+02 6.000000e+01 -6.361935e+01 5.278095e-01 -7.723808e-01 3.533341e-01 51 118 177
3.150000e+02 6.000000e+01 -6.520055e+01 5.338230e-01 -7.682813e-01 3.532377e-01 55 118 178
3.160000e+02 6.000000e+01 -6.677972e+01 5.478227e-01 -7.705915e-01 3.256976e-01 54 119 181
3.170000e+02 6.000000e+01 -6.843319e+01 5.544847e-01 -7.602350e-01 3.385108e-01 53 119 180
3.180000e+02 6.000000e+01 -7.006338e+01 5.911927e-01 -7.331209e-01 3.361919e-01 52 119 183
3.190000e+02 6.000000e+01 -7.176417e+01 5.925962e-01 -7.338344e-01 3.321398e-01 50 121 188
3.200000e+02 6.000000e+01 -7.336136e+01 5.876815e-01 -7.085012e-01 3.907129e-01 47 120 187
3.210000e+02 6.000000e+01 -7.471083e+01 6.382866e-01 -6.296458e-01 4.428729e-01 47 124 192
3.220000e+02 6.000000e+01 -7.604765e+01 6.364716e-01 -5.814720e-01 5.067487e-01 46 125 195
3.230000e+02 6.000000e+01 -7.726721e+01 6.073335e-01 -5.501589e-01 5.731241e-01 48 133 194
3.240000e+02 6.000000e+01 -7.835955e+01 6.068975e-01 -4.978248e-01 6.195529e-01 48 132 192
3.250000e+02 6.000000e+01 -7.940453e+01 6.075214e-01 -4.457778e-01 6.574191e-01 50 130 193
3.260000e+02 6.000000e+01 -8.041890e+01 6.438470e-01 -4.480939e-01 6.202200e-01 53 127 190
3.270000e+02 6.000000e+01 -8.155342e+01 8.061936e-01 -4.188409e-01 4.178807e-01 50 117 171
3.280000e+02 6.000000e+01 -8.360256e+01 9.067778e-01 -3.520468e-01 2.319849e-01 31 69 97
2.500000e+02 6.100000e+01 -6.306857e+01 -3.772832e-01 -8.667757e-01 3.261246e-01 18 37 50
2.510000e+02 6.100000e+01 -6.202446e+01 -3.785171e-01 -8.923362e-01 2.458879e-01 30 61 85
2.520000e+02 6.100000e+01 -6.054333e+01 -3.771204e-01 -8.922089e-01 2.484824e-01 39 81 116
2.530000e+02 6.100000e+01 -5.882791e+01 -3.767175e-01 -8.920110e-01 2.498004e-01 44 93 135
2.540000e+02 6.100000e+01 -5.727369e+01 -3.882220e-01 -8.872423e-01 2.491683e-01 44 98 144
2.550000e+02 6.100000e+01 -5.566502e+01 -3.883187e-01 -8.798950e-01 2.738490e-01 44 99 145
2.560000e+02 6.100000e+01 -5.420397e+01 -3.971021e-01 -8.724446e-01 2.848692e-01 45 100 146
2.570000e+02 6.100000e+01 -5.288359e+01 -3.884108e-01 -8.757694e-01 2.866445e-01 45 104 150
2.580000e+02 6.100000e+01 -5.167517e+01 -3.615844e-01 -8.832578e-01 2.985169e-01 44 104 154
2.590000e+02 6.100000e+01 -5.055841e+01 -3.447160e-01 -8.901725e-01 2.979326e-01 45 106 156
2.600000e+02 6.100000e+01 -4.949450e+01 -3.378146e-01 -8.905751e-01 3.045607e-01 45 107 158
2.610000e+02 6.100000e+01 -4.845319e+01 -3.405277e-01 -8.837939e-01 3.208569e-01 43 107 159
2.620000e+02 6.100000e+01 -4.749913e+01 -3.040876e-01 -8.989269e-01 3.153746e-01 45 112 163
2.630000e+02 6.100000e+01 -4.660751e+01 -2.952089e-01 -8.994455e-01 3.222567e-01 48 116 169
2.640000e+02 6.100000e+01 -4.577084e+01 -2.711804e-01 -9.039799e-01 3.305776e-01 47 117 169
2.650000e+02 6.100000e+01 -4.501995e+01 -2.633934e-01 -9.009598e-01 3.448121e-01 46 116 166
2.660000e+02 6.100000e+01 -4.433415e+01 -2.408156e-01 -9.058527e-01 3.484807e-01 44 115 165
2.670000e+02 6.100000e+01 -4.369755e+01 -2.329897e-01 -9.031395e-01 3.606313e-01 46 117 167
2.680000e+02 6.100000e+01 -4.306831e+01 -2.016862e-01 -9.092750e-01 3.640628e-01 45 117 169
2.690000e+02 6.100000e+01 -4.251384e+01 -1.998449e-01 -9.029330e-01 3.804918e-01 44 118 171
2.700000e+02 6.100000e+01 -4.199034e+01 -1.732046e-01 -9.027900e-01 3.936627e-01 46 120 173
2.710000e+02 6.100000e+01 -4.156506e+01 -1.846605e-01 -9.015522e-01 3.912852e-01 47 120 172
2.720000e+02 6.100000e+01 -4.109627e+01 -1.732283e-01 -8.997700e-01 4.005071e-01 48 119 171
2.730000e+02 6.100000e+01 -4.067244e+01 -1.692961e-01 -9.023093e-01 3.964551e-01 50 120 169
2.740000e+02 6.100000e+01 -4.024146e+01 -1.490578e-01 -9.025402e-01 4.039839e-01 53 121 173
2.750000e+02 6.100000e+01 -3.989554e+01 -1.317356e-01 -9.014218e-01 4.124131e-01 51 121 174
2.760000e+02 6.100000e+01 -3.960026e+01 -1.306363e-01 -9.046789e-01 4.055739e-01 49 121 176
2.770000e+02 6.100000e+01 -3.926973e+01 -9.827135e-02 -8.961981e-01 4.326334e-01 46 118 176
2.780000e+02 6.100000e+01 -3.902267e+01 -9.740793e-02 -8.928167e-01 4.397613e-01 47 118 176
2.790000e+02 6.100000e+01 -3.879303e+01 -8.079212e-02 -8.921314e-01 4.444932e-01 46 117 174
2.800000e+02 6.100000e+01 -3.863404e+01 -4.453898e-02 -8.958874e-01 4.420430e-01 49 120 176
2.810000e+02 6.100000e+01 -3.854782e+01 -3.137909e-02 -8.940150e-01 4.469368e-01 49 121 177
2.820000e+02 6.100000e+01 -3.849954e+01 -1.097197e-02 -8.899554e-01 4.559155e-01 49 121 176
2.830000e+02 6.100000e+01 -3.847555e+01 -5.327469e-03 -8.803134e-01 4.743627e-01 50 121 173
2.840000e+02 6.100000e+01 -3.849687e+01 1.137287e-02 -8.810680e-01 4.728529e-01 52 121 174
2.850000e+02 6.100000e+01 -3.857480e+01 4.251427e-02 -8.846081e-01 4.643932e-01 55 123 179
2.860000e+02 6.100000e+01 -3.871326e+01 6.658343e-02 -8.831304e-01 4.643784e-01 56 125 182
2.870000e+02 6.100000e+01 -3.887614e+01 9.835249e-02 -8.763096e-01 4.716017e-01 56 123 182
2.880000e+02 6.100000e+01 -3.911437e+01 1.306437e-01 -8.754577e-01 4.653021e-01 55 121 180
2.890000e+02 6.100000e+01 -3.942021e+01 1.363179e-01 -8.708943e-01 4.721869e-01 54 119 176
2.900000e+02 6.100000e+01 -3.976679e+01 1.335606e-01 -8.730361e-01 4.690090e-01 53 118 174
2.910000e+02 6.100000e+01 -4.012497e+01 1.500218e-01 -8.716724e-01 4.665627e-01 53 121 177
2.920000e+02 6.100000e+01 -4.053158e+01 1.646297e-01 -8.638088e-01 4.761632e-01 52 119 179
2.930000e+02 6.100000e+01 -4.098149e+01 1.795303e-01 -8.631527e-01 4.719495e-01 50 118 175
2.940000e+02 6.100000e+01 -4.147161e+01 1.948093e-01 -8.609505e-01 4.699080e-01 51 120 175
2.950000e+02 6.100000e+01 -4.201041e+01 2.161213e-01 -8.618888e-01 4.587367e-01 54 125 179
2.960000e+02 6.100000e+01 -4.259611e+01 2.315799e-01 -8.580368e-01 4.584143e-01 54 123 181
2.970000e+02 6.100000e+01 -4.320822e+01 2.613277e-01 -8.416993e-01 4.724936e-01 51 121 180
2.980000e+02 6.100000e+01 -4.388851e+01 2.699964e-01 -8.383907e-01 4.735007e-01 50 121 179
2.990000e+02 6.100000e+01 -4.461000e+01 2.865253e-01 -8.394020e-01 4.618524e-01 50 121 175
3.000000e+02 6.100000e+01 -4.537159e+01 2.958401e-01 -8.361719e-01 4.618389e-01 50 120 179
3.010000e+02 6.100000e+01 -4.616525e+01 3.128071e-01 -8.309746e-01 4.600357e-01 49 120 179
3.020000e+02 6.100000e+01 -4.694997e+01 3.253704e-01 -8.283941e-01 4.559575e-01 50 119 179
3.030000e+02 6.100000e+01 -4.779400e+01 3.513849e-01 -8.187605e-01 4.540484e-01 50 117 179
3.040000e+02 6.100000e+01 -4.872445e+01 3.739651e-01 -8.213921e-01 4.306567e-01 51 121 182
3.050000e+02 6.100000e+01 -4.974111e+01 3.684769e-01 -8.266620e-01 4.252702e-01 51 122 179
3.060000e+02 6.100000e+01 -5.077706e+01 4.086537e-01 -8.143025e-01 4.122058e-01 52 121 180
3.070000e+02 6.100000e+01 -5.189899e+01 4.380428e-01 -8.028891e-01 4.043360e-01 53 119 180
3.080000e+02 6.100000e+01 -5.310404e+01 4.415479e-01 -8.065396e-01 3.931021e-01 52 121 181
3.090000e+02 6.100000e+01 -5.434672e+01 4.403213e-01 -8.124997e-01 3.820488e-01 52 119 178
3.100000e+02 6.100000e+01 -5.562040e+01 4.517821e-01 -8.130760e-01 3.671516e-01 51 118 182
3.110000e+02 6.100000e+01 -5.696890e+01 4.779059e-01 -8.026763e-01 3.568148e-01 51 120 181
3.120000e+02 6.100000e+01 -5.838145e+01 4.838579e-01 -8.050462e-01 3.431940e-01 52 123 180
3.130000e+02 6.100000e+01 -5.989454e+01 4.833741e-01 -8.075062e-01 3.380580e-01 51 123 181
3.140000e+02 6.100000e+01 -6.132457e+01 5.159500e-01 -7.932770e-01 3.232757e-01 52 121 181
3.150000e+02 6.100000e+01 -6.288716e+01 5.404943e-01 -7.799621e-01 3.154759e-01 55 120 181
3.160000e+02 6.100000e+01 -6.446486e+01 5.534530e-01 -7.733201e-01 3.092989e-01 56 119 179
3.170000e+02 6.100000e+01 -6.617344e+01 5.572846e-01 -7.681943e-01 3.151372e-01 54 120 180
3.180000e+02 6.100000e+01 -6.787872e+01 5.842387e-01 -7.483608e-01 3.140401e-01 53 119 181
3.190000e+02 6.100000e+01 -6.965730e+01 5.940612e-01 -7.480434e-01 2.958418e-01 52 120 184
3.200000e+02 6.100000e+01 -7.152341e+01 6.057552e-01 -7.271861e-01 3.228947e-01 49 116 182
3.210000e+02 6.100000e+01 -7.325094e+01 6.341234e-01 -6.938431e-01 3.412759e-01 48 121 186
3.220000e+02 6.100000e+01 -7.488303e+01 6.531740e-01 -6.510060e-01 3.867233e-01 48 125 189
3.230000e+02 6.100000e+01 -7.636259e+01 6.414650e-01 -6.048454e-01 4.718948e-01 47 130 195
3.240000e+02 6.100000e+01 -7.765101e+01 6.396806e-01 -5.311040e-01 5.556413e-01 46 128 194
3.250000e+02 6.100000e+01 -7.883508e+01 6.280319e-01 -4.835747e-01 6.096979e-01 47 132 200
3.260000e+02 6.100000e+01 -7.992347e+01 6.004865e-01 -4.768179e-01 6.419195e-01 51 131 198
3.270000e+02 6.100000e+01 -8.095933e+01 7.332956e-01 -4.391717e-01 5.190432e-01 49 119 178
3.280000e+02 6.100000e+01 -8.247405e+01 8.822399e-01 -3.861468e-01 2.693390e-01 41 92 132
2.480000e+02 6.200000e+01 -6.277673e+01 -3.960220e-01 -8.502330e-01 3.468002e-01 17 34 48
2.490000e+02 6.200000e+01 -6.176876e+01 -3.830200e-01 -8.901086e-01 2.469866e-01 31 63 89
2.500000e+02 6.200000e+01 -6.029802e+01 -3.998285e-01 -8.846547e-01 2.398399e-01 41 84 122
2.510000e+02 6.200000e+01 -5.853554e+01 -4.121013e-01 -8.767382e-01 2.479971e-01 43 94 135
2.520000e+02 6.200000e+01 -5.689083e+01 -4.091574e-01 -8.753947e-01 2.574381e-01 47 101 144
2.530000e+02 6.200000e+01 -5.527499e+01 -4.029123e-01 -8.757223e-01 2.660303e-01 48 105 147
2.540000e+02 6.200000e+01 -5.373579e+01 -3.990089e-01 -8.722507e-01 2.827909e-01 43 104 149
2.550000e+02 6.200000e+01 -5.237192e+01 -4.020174e-01 -8.695956e-01 2.866802e-01 43 104 153
2.560000e+02 6.200000e+01 -5.098526e+01 -4.007449e-01 -8.640233e-01 3.047414e-01 45 104 154
2.570000e+02 6.200000e+01 -4.971712e+01 -3.790602e-01 -8.733735e-01 3.058303e-01 44 106 156
2.580000e+02 6.200000e+01 -4.859702e+01 -3.606989e-01 -8.782676e-01 3.139146e-01 42 108 159
2.590000e+02 6.200000e+01 -4.755317e+01 -3.450014e-01 -8.842217e-01 3.148427e-01 45 111 162
2.600000e+02 6.200000e+01 -4.654290e+01 -3.454748e-01 -8.804677e-01 3.246902e-01 45 112 162
2.610000e+02 6.200000e+01 -4.558430e+01 -3.272443e-01 -8.849025e-01 3.314495e-01 45 112 164
2.620000e+02 6.200000e+01 -4.464312e+01 -3.095641e-01 -8.894005e-01 3.363582e-01 45 116 166
2.630000e+02 6.200000e+01 -4.378919e+01 -2.827352e-01 -8.953850e-01 3.440152e-01 46 117 167
2.640000e+02 6.200000e+01 -4.302707e+01 -2.601071e-01 -8.976328e-01 3.558085e-01 45 117 167
2.650000e+02 6.200000e+01 -4.236118e+01 -2.492048e-01 -8.979071e-01 3.628495e-01 45 119 167
2.660000e+02 6.200000e+01 -4.172867e+01 -2.347856e-01 -9.020563e-01 3.621742e-01 46 119 169
2.670000e+02 6.200000e+01 -4.113294e+01 -2.129969e-01 -9.032147e-01 3.726064e-01 47 121 171
2.680000e+02 6.200000e+01 -4.056961e+01 -1.843661e-01 -9.054837e-01 3.822414e-01 46 122 172
2.690000e+02 6.200000e+01 -4.008130e+01 -1.844152e-01 -8.967049e-01 4.023821e-01 44 120 173
2.700000e+02 6.200000e+01 -3.962882e+01 -1.771878e-01 -8.929312e-01 4.138579e-01 45 120 176
2.710000e+02 6.200000e+01 -3.921815e+01 -1.767262e-01 -8.965283e-01 4.062080e-01 48 122 177
2.720000e+02 6.200000e+01 -3.878601e+01 -1.776459e-01 -8.930921e-01 4.133140e-01 53 123 178
2.730000e+02 6.200000e+01 -3.835108e+01 -1.649649e-01 -8.901812e-01 4.246929e-01 57 123 175
2.740000e+02 6.200000e+01 -3.797339e+01 -1.394842e-01 -8.919536e-01 4.300732e-01 56 123 175
2.750000e+02 6.200000e+01 -3.766241e+01 -1.271175e-01 -8.908678e-01 4.361143e-01 51 122 176
2.760000e+02 6.200000e+01 -3.738056e+01 -1.115779e-01 -8.953131e-01 4.312364e-01 50 122 177
2.770000e+02 6.200000e+01 -3.713615e+01 -9.225644e-02 -8.917383e-01 4.430480e-01 50 121 176
2.780000e+02 6.200000e+01 -3.692457e+01 -7.314761e-02 -8.902684e-01 4.495237e-01 49 120 175
2.790000e+02 6.200000e+01 -3.673830e+01 -6.589270e-02 -8.818908e-01 4.668263e-01 48 117 171
2.800000e+02 6.200000e+01 -3.660442e+01 -3.112679e-02 -8.852975e-01 4.639821e-01 50 117 172
2.810000e+02 6.200000e+01 -3.654773e+01 -1.480493e-02 -8.804578e-01 4.738933e-01 49 117 172
2.820000e+02 6.200000e+01 -3.654905e+01 -8.739832e-03 -8.809053e-01 4.732119e-01 50 118 174
2.830000e+02 6.200000e+01 -3.658444e+01 -2.141075e-03 -8.813276e-01 4.725008e-01 51 120 173
2.840000e+02 6.200000e+01 -3.661886e+01 2.592128e-02 -8.781366e-01 4.777073e-01 53 118 174
2.850000e+02 6.200000e+01 -3.670009e+01 5.166795e-02 -8.749902e-01 4.813757e-01 54 120 176
2.860000e+02 6.200000e+01 -3.685674e+01 6.682985e-02 -8.751130e-01 4.792818e-01 55 121 177
2.870000e+02 6.200000e+01 -3.705746e+01 8.209563e-02 -8.712902e-01 4.838530e-01 54 119 176
2.880000e+02 6.200000e+01 -3.729614e+01 1.099914e-01 -8.722092e-01 4.766057e-01 54 119 177
2.890000e+02 6.200000e+01 -3.760702e+01 1.361320e-01 -8.705648e-01 4.728478e-01 52 120 176
2.900000e+02 6.200000e+01 -3.795361e+01 1.385618e-01 -8.647592e-01 4.826925e-01 52 118 174
2.910000e+02 6.200000e+01 -3.832658e+01 1.553783e-01 -8.626838e-01 4.812839e-01 51 119 175
2.920000e+02 6.200000e+01 -3.875122e+01 1.692710e-01 -8.584994e-01 4.840725e-01 50 119 174
2.930000e+02 6.200000e+01 -3.919784e+01 1.904466e-01 -8.568987e-01 4.790143e-01 48 117 174
2.940000e+02 6.200000e+01 -3.969691e+01 1.929603e-01 -8.589481e-01 4.743148e-01 49 119 176
2.950000e+02 6.200000e+01 -4.021765e+01 2.146765e-01 -8.606589e-01 4.617144e-01 52 123 179
2.960000e+02 6.200000e+01 -4.080263e+01 2.254598e-01 -8.558880e-01 4.654285e-01 52 124 180
2.970000e+02 6.200000e+01 -4.142925e+01 2.537683e-01 -8.417031e-01 4.765895e-01 51 123 181
2.980000e+02 6.200000e+01 -4.210800e+01 2.719988e-01 -8.444835e-01 4.613721e-01 51 124 182
2.990000e+02 6.200000e+01 -4.281797e+01 2.718156e-01 -8.407577e-01 4.682336e-01 51 123 180
3.000000e+02 6.200000e+01 -4.354282e+01 2.869954e-01 -8.355744e-01 4.684539e-01 51 123 180
3.010000e+02 6.200000e+01 -4.429591e+01 2.881558e-01 -8.320175e-01 4.740392e-01 49 120 181
3.020000e+02 6.200000e+01 -4.504878e+01 3.123447e-01 -8.264789e-01 4.683731e-01 49 119 182
3.030000e+02 6.200000e+01 -4.586891e+01 3.430726e-01 -8.261512e-01 4.469624e-01 48 117 180
3.040000e+02 6.200000e+01 -4.675277e+01 3.563616e-01 -8.310260e-01 4.270856e-01 49 117 181
3.050000e+02 6.200000e+01 -4.768597e+01 3.767057e-01 -8.213337e-01 4.283735e-01 51 119 179
3.060000e+02 6.200000e+01 -4.867256e+01 4.018761e-01 -8.168892e-01 4.137484e-01 53 124 178
3.070000e+02 6.200000e+01 -4.975885e+01 4.336720e-01 -8.100021e-01 3.947469e-01 55 126 182
3.080000e+02 6.200000e+01 -5.093906e+01 4.409500e-01 -8.112581e-01 3.839576e-01 55 127 183
3.090000e+02 6.200000e+01 -5.215019e+01 4.377767e-01 -8.152026e-01 3.792048e-01 55 127 182
3.100000e+02 6.200000e+01 -5.337333e+01 4.375938e-01 -8.168002e-01 3.759642e-01 54 125 182
3.110000e+02 6.200000e+01 -5.462135e+01 4.593916e-01 -8.057012e-01 3.739051e-01 52 122 182
3.120000e+02 6.200000e+01 -5.593725e+01 4.787182e-01 -8.085770e-01 3.420995e-01 54 123 180
3.130000e+02 6.200000e+01 -5.736491e+01 4.820892e-01 -8.108043e-01 3.319435e-01 54 124 182
3.140000e+02 6.200000e+01 -5.877431e+01 5.235360e-01 -7.857944e-01 3.292981e-01 54 122 182
3.150000e+02 6.200000e+01 -6.034177e+01 5.302050e-01 -7.878337e-01 3.133700e-01 55 122 184
3.160000e+02 6.200000e+01 -6.196105e+01 5.492688e-01 -7.771476e-01 3.071569e-01 54 123 181
3.170000e+02 6.200000e+01 -6.370501e+01 5.587024e-01 -7.788028e-01 2.851627e-01 53 124 183
3.180000e+02 6.200000e+01 -6.550939e+01 5.666465e-01 -7.742632e-01 2.818303e-01 52 122 184
3.190000e+02 6.200000e+01 -6.730775e+01 5.777626e-01 -7.684327e-01 2.751392e-01 53 119 184
3.200000e+02 6.200000e+01 -6.926467e+01 6.032054e-01 -7.465146e-01 2.808189e-01 50 117 180
3.210000e+02 6.200000e+01 -7.124665e+01 6.135503e-01 -7.348528e-01 2.890457e-01 48 116 179
3.220000e+02 6.200000e+01 -7.320361e+01 6.388008e-01 -7.092195e-01 2.982303e-01 49 120 183
3.230000e+02 6.200000e+01 -7.509271e+01 6.427310e-01 -6.857278e-01 3.415761e-01 48 124 193
3.240000e+02 6.200000e+01 -7.672930e+01 6.475226e-01 -6.263998e-01 4.339791e-01 45 124 197
3.250000e+02 6.200000e+01 -7.813716e+01 6.178786e-01 -5.886172e-01 5.213020e-01 46 128 198
3.260000e+02 6.200000e+01 -7.934483e+01 5.803856e-01 -5.529510e-01 5.978275e-01 47 128 197
3.270000e+02 6.200000e+01 -8.042942e+01 6.415180e-01 -5.225709e-01 5.615820e-01 48 122 184
3.280000e+02 6.200000e+01 -8.170754e+01 8.151321e-01 -4.680689e-01 3.412788e-01 47 106 156
3.290000e+02 6.200000e+01 -8.418600e+01 9.015611e-01 -3.598496e-01 2.401997e-01 22 50 68
2.460000e+02 6.300000e+01 -6.285985e+01 -4.223130e-01 -8.435854e-01 3.316857e-01 18 36 49
2.470000e+02 6.300000e+01 -6.166285e+01 -4.100682e-01 -8.741148e-01 2.603216e-01 31 63 90
2.480000e+02 6.300000e+01 -6.019112e+01 -4.117317e-01 -8.782932e-01 2.430596e-01 38 82 121
2.490000e+02 6.300000e+01 -5.834896e+01 -4.332855e-01 -8.670763e-01 2.458504e-01 44 94 139
2.500000e+02 6.300000e+01 -5.658133e+01 -4.295206e-01 -8.622287e-01 2.684653e-01 48 102 145
2.510000e+02 6.300000e+01 -5.503179e+01 -4.271302e-01 -8.647250e-01 2.642168e-01 49 106 146
2.520000e+02 6.300000e+01 -5.347509e+01 -4.254314e-01 -8.621811e-01 2.750488e-01 48 108 149
2.530000e+02 6.300000e+01 -5.199886e+01 -4.153610e-01 -8.648020e-01 2.821218e-01 45 108 152
2.540000e+02 6.300000e+01 -5.060022e+01 -4.100699e-01 -8.611467e-01 3.004479e-01 44 106 156
2.550000e+02 6.300000e+01 -4.929572e+01 -4.047196e-01 -8.626819e-01 3.032854e-01 47 109 161
2.560000e+02 6.300000e+01 -4.798058e+01 -4.046092e-01 -8.536681e-01 3.279363e-01 45 107 158
2.570000e+02 6.300000e+01 -4.669085e+01 -3.906183e-01 -8.398972e-01 3.768156e-01 39 101 155
2.580000e+02 6.300000e+01 -4.569941e+01 -3.501095e-01 -8.683447e-01 3.512846e-01 44 111 165
2.590000e+02 6.300000e+01 -4.474820e+01 -3.444166e-01 -8.793227e-01 3.288904e-01 47 117 168
2.600000e+02 6.300000e+01 -4.378200e+01 -3.320346e-01 -8.816787e-01 3.352546e-01 46 116 166
2.610000e+02 6.300000e+01 -4.286233e+01 -3.246556e-01 -8.813075e-01 3.433596e-01 45 117 166
2.620000e+02 6.300000e+01 -4.197231e+01 -2.996714e-01 -8.869663e-01 3.514083e-01 45 118 166
2.630000e+02 6.300000e+01 -4.116629e+01 -2.696827e-01 -8.902565e-01 3.670348e-01 47 119 166
2.640000e+02 6.300000e+01 -4.048703e+01 -2.437732e-01 -8.971966e-01 3.682566e-01 47 120 169
