ply
format ascii 1.0
element vertex 519
property float x
property float y
property float z
property float nx
property float ny
property float nz
property uchar blue
property uchar green
property uchar red
end_header
2.930000e+02 9.300000e+01 2.332189e+00 4.766782e-01 -4.919036e-01 7.285663e-01 186 187 188
2.940000e+02 9.300000e+01 1.660477e+00 4.820340e-01 -4.981359e-01 7.207662e-01 187 188 190
2.950000e+02 9.300000e+01 9.818093e-01 4.894068e-01 -4.993519e-01 7.149326e-01 187 187 189
2.960000e+02 9.300000e+01 2.851881e-01 4.930795e-01 -4.909091e-01 7.182485e-01 186 187 188
2.970000e+02 9.300000e+01 -4.105546e-01 5.025666e-01 -4.889575e-01 7.129848e-01 188 188 190
2.980000e+02 9.300000e+01 -1.118385e+00 5.170493e-01 -4.895346e-01 7.021509e-01 187 185 190
2.990000e+02 9.300000e+01 -1.853466e+00 5.193055e-01 -4.959420e-01 6.959622e-01 185 186 188
3.000000e+02 9.300000e+01 -2.606513e+00 5.300078e-01 -4.885805e-01 6.930951e-01 187 189 190
3.010000e+02 9.300000e+01 -3.378407e+00 5.389639e-01 -4.871837e-01 6.871462e-01 193 189 193
3.020000e+02 9.300000e+01 -4.162369e+00 5.439639e-01 -4.840029e-01 6.854520e-01 192 189 194
3.030000e+02 9.300000e+01 -4.956396e+00 5.460694e-01 -4.779825e-01 6.879978e-01 190 189 193
3.040000e+02 9.300000e+01 -5.754840e+00 5.539432e-01 -4.753154e-01 6.835365e-01 191 188 194
3.050000e+02 9.300000e+01 -6.569971e+00 5.664759e-01 -4.755019e-01 6.730550e-01 190 189 193
3.060000e+02 9.300000e+01 -7.415039e+00 5.749244e-01 -4.792400e-01 6.631674e-01 189 189 192
3.070000e+02 9.300000e+01 -8.279080e+00 5.854323e-01 -4.765748e-01 6.558548e-01 183 185 186
3.080000e+02 9.300000e+01 -9.175543e+00 5.940437e-01 -4.738215e-01 6.500810e-01 182 185 185
3.090000e+02 9.300000e+01 -1.009474e+01 5.983047e-01 -4.780033e-01 6.430742e-01 182 186 184
3.100000e+02 9.300000e+01 -1.102274e+01 6.073705e-01 -4.763647e-01 6.357497e-01 180 185 182
3.110000e+02 9.300000e+01 -1.197076e+01 6.236646e-01 -4.672537e-01 6.266709e-01 180 183 182
3.120000e+02 9.300000e+01 -1.294745e+01 6.380643e-01 -4.650113e-01 6.137088e-01 179 183 183
3.130000e+02 9.300000e+01 -1.396076e+01 6.470038e-01 -4.616187e-01 6.068725e-01 182 187 184
3.140000e+02 9.300000e+01 -1.499823e+01 6.485012e-01 -4.647247e-01 6.028907e-01 183 186 183
3.150000e+02 9.300000e+01 -1.604266e+01 6.597757e-01 -4.639959e-01 5.911040e-01 185 188 185
3.160000e+02 9.300000e+01 -1.712318e+01 6.658418e-01 -4.632219e-01 5.848762e-01 187 189 186
3.170000e+02 9.300000e+01 -1.821622e+01 6.694102e-01 -4.545654e-01 5.875885e-01 188 190 187
3.180000e+02 9.300000e+01 -1.931497e+01 6.783662e-01 -4.522942e-01 5.790071e-01 187 191 187
3.190000e+02 9.300000e+01 -2.044393e+01 6.845908e-01 -4.470753e-01 5.757248e-01 185 190 186
3.200000e+02 9.300000e+01 -2.158729e+01 6.874278e-01 -4.523292e-01 5.681913e-01 185 189 186
3.210000e+02 9.300000e+01 -2.275986e+01 6.994258e-01 -4.493339e-01 5.557901e-01 182 188 183
3.220000e+02 9.300000e+01 -2.397680e+01 7.100924e-01 -4.416369e-01 5.483846e-01 181 186 181
3.230000e+02 9.300000e+01 -2.523929e+01 7.129502e-01 -4.428578e-01 5.436717e-01 182 186 183
3.240000e+02 9.300000e+01 -2.651031e+01 7.217305e-01 -4.366283e-01 5.370855e-01 183 189 187
3.250000e+02 9.300000e+01 -2.781612e+01 7.331032e-01 -4.287392e-01 5.279606e-01 184 190 187
3.260000e+02 9.300000e+01 -2.916607e+01 7.385486e-01 -4.242341e-01 5.239956e-01 185 189 186
3.270000e+02 9.300000e+01 -3.053423e+01 7.521448e-01 -4.121900e-01 5.141766e-01 185 190 185
3.280000e+02 9.300000e+01 -3.194910e+01 7.611777e-01 -4.095907e-01 5.028360e-01 183 187 183
3.290000e+02 9.300000e+01 -3.341838e+01 7.703346e-01 -4.103402e-01 4.880630e-01 181 189 186
3.300000e+02 9.300000e+01 -3.494407e+01 7.814774e-01 -4.052585e-01 4.744035e-01 181 188 186
3.310000e+02 9.300000e+01 -3.652977e+01 7.939865e-01 -4.101683e-01 4.487175e-01 181 186 184
3.320000e+02 9.300000e+01 -3.821469e+01 8.023731e-01 -4.152307e-01 4.286968e-01 178 179 181
3.330000e+02 9.300000e+01 -4.001065e+01 8.060969e-01 -4.132904e-01 4.235551e-01 178 178 182
3.340000e+02 9.300000e+01 -4.185013e+01 8.098767e-01 -4.143321e-01 4.152453e-01 173 176 177
3.350000e+02 9.300000e+01 -4.377445e+01 8.219510e-01 -4.103170e-01 3.950144e-01 169 175 174
3.360000e+02 9.300000e+01 -4.583907e+01 8.362524e-01 -4.097362e-01 3.644148e-01 167 174 173
3.370000e+02 9.300000e+01 -4.805286e+01 8.486255e-01 -3.922188e-01 3.549637e-01 168 175 174
3.380000e+02 9.300000e+01 -5.031974e+01 8.614531e-01 -3.723956e-01 3.452826e-01 166 173 172
3.390000e+02 9.300000e+01 -5.266499e+01 8.759112e-01 -3.439463e-01 3.383497e-01 169 173 169
3.400000e+02 9.300000e+01 -5.487353e+01 8.823464e-01 -2.879099e-01 3.722536e-01 131 128 120
1.490000e+02 9.400000e+01 -4.404864e+01 -6.560582e-01 -5.981137e-01 4.602692e-01 40 43 41
1.500000e+02 9.400000e+01 -4.250524e+01 -8.241268e-01 -4.924618e-01 2.798149e-01 152 154 146
1.510000e+02 9.400000e+01 -3.943623e+01 -8.341264e-01 -4.513154e-01 3.170924e-01 186 183 181
1.520000e+02 9.400000e+01 -3.676078e+01 -8.384960e-01 -3.919517e-01 3.785476e-01 190 187 187
1.530000e+02 9.400000e+01 -3.456877e+01 -8.363422e-01 -3.506287e-01 4.214158e-01 191 189 186
1.540000e+02 9.400000e+01 -3.264103e+01 -8.289866e-01 -3.324192e-01 4.497539e-01 189 186 183
1.550000e+02 9.400000e+01 -3.085689e+01 -8.194854e-01 -3.237711e-01 4.728806e-01 185 180 179
1.560000e+02 9.400000e+01 -2.918764e+01 -8.058463e-01 -3.188431e-01 4.989497e-01 183 180 179
1.570000e+02 9.400000e+01 -2.763195e+01 -7.954914e-01 -3.141771e-01 5.181565e-01 181 180 177
1.580000e+02 9.400000e+01 -2.616083e+01 -7.838740e-01 -3.207897e-01 5.316348e-01 179 179 177
1.590000e+02 9.400000e+01 -2.475747e+01 -7.678597e-01 -3.380927e-01 5.441367e-01 178 180 176
1.600000e+02 9.400000e+01 -2.341082e+01 -7.574510e-01 -3.372910e-01 5.590195e-01 179 177 176
1.610000e+02 9.400000e+01 -2.211353e+01 -7.442619e-01 -3.411230e-01 5.742032e-01 177 175 175
1.620000e+02 9.400000e+01 -2.087104e+01 -7.387422e-01 -3.548817e-01 5.729912e-01 174 173 171
1.630000e+02 9.400000e+01 -1.964355e+01 -7.295393e-01 -3.533365e-01 5.855986e-01 174 172 171
1.640000e+02 9.400000e+01 -1.845816e+01 -7.185115e-01 -3.474150e-01 6.025313e-01 175 173 172
1.650000e+02 9.400000e+01 -1.732316e+01 -7.056505e-01 -3.426387e-01 6.202065e-01 176 174 172
1.660000e+02 9.400000e+01 -1.623540e+01 -6.968265e-01 -3.465264e-01 6.279747e-01 179 177 174
1.670000e+02 9.400000e+01 -1.517663e+01 -6.908146e-01 -3.525518e-01 6.312546e-01 179 178 176
1.680000e+02 9.400000e+01 -1.413348e+01 -6.730742e-01 -3.618120e-01 6.450296e-01 178 177 176
1.690000e+02 9.400000e+01 -1.313208e+01 -6.644684e-01 -3.576101e-01 6.561987e-01 180 179 178
1.700000e+02 9.400000e+01 -1.216639e+01 -6.495144e-01 -3.696676e-01 6.644373e-01 179 178 177
1.710000e+02 9.400000e+01 -1.122801e+01 -6.405979e-01 -3.686657e-01 6.735873e-01 177 178 176
1.720000e+02 9.400000e+01 -1.031936e+01 -6.351455e-01 -3.710863e-01 6.774106e-01 178 179 177
1.730000e+02 9.400000e+01 -9.423027e+00 -6.221071e-01 -3.646621e-01 6.928235e-01 178 179 177
1.740000e+02 9.400000e+01 -8.564245e+00 -6.161539e-01 -3.594725e-01 7.008095e-01 178 178 178
1.750000e+02 9.400000e+01 -7.728253e+00 -6.081282e-01 -3.724348e-01 7.010510e-01 180 179 180
1.760000e+02 9.400000e+01 -6.901838e+00 -6.000343e-01 -3.622643e-01 7.132485e-01 179 178 180
1.770000e+02 9.400000e+01 -6.093836e+00 -5.881759e-01 -3.552662e-01 7.265226e-01 179 178 181
1.780000e+02 9.400000e+01 -5.322000e+00 -5.790189e-01 -3.530492e-01 7.349104e-01 180 180 183
1.790000e+02 9.400000e+01 -4.574972e+00 -5.743798e-01 -3.556345e-01 7.373004e-01 179 180 183
1.800000e+02 9.400000e+01 -3.832639e+00 -5.667155e-01 -3.609383e-01 7.406464e-01 178 181 181
1.810000e+02 9.400000e+01 -3.101554e+00 -5.616017e-01 -3.553012e-01 7.472380e-01 179 182 183
1.820000e+02 9.400000e+01 -2.385693e+00 -5.489252e-01 -3.613008e-01 7.537526e-01 178 180 183
1.830000e+02 9.400000e+01 -1.681959e+00 -5.488887e-01 -3.670560e-01 7.509934e-01 179 184 185
1.840000e+02 9.400000e+01 -9.837999e-01 -5.358352e-01 -3.612853e-01 7.631210e-01 177 182 182
1.850000e+02 9.400000e+01 -3.116215e-01 -5.189910e-01 -3.651628e-01 7.728547e-01 177 180 181
1.860000e+02 9.400000e+01 3.309559e-01 -5.102521e-01 -3.758247e-01 7.735623e-01 178 179 182
1.870000e+02 9.400000e+01 9.650149e-01 -5.008559e-01 -3.785210e-01 7.783734e-01 180 180 183
1.880000e+02 9.400000e+01 1.589954e+00 -5.016831e-01 -3.708381e-01 7.815326e-01 179 181 181
1.890000e+02 9.400000e+01 2.201781e+00 -4.986191e-01 -3.858619e-01 7.762021e-01 178 181 181
1.900000e+02 9.400000e+01 2.809338e+00 -4.832609e-01 -3.835556e-01 7.869841e-01 179 183 182
1.910000e+02 9.400000e+01 3.391390e+00 -4.732808e-01 -3.833445e-01 7.931281e-01 181 183 183
1.920000e+02 9.400000e+01 3.963381e+00 -4.609008e-01 -3.804527e-01 8.017644e-01 182 185 183
1.930000e+02 9.400000e+01 4.515255e+00 -4.513699e-01 -3.768461e-01 8.088586e-01 180 186 183
1.940000e+02 9.400000e+01 5.046048e+00 -4.456591e-01 -3.837716e-01 8.087690e-01 180 186 184
1.950000e+02 9.400000e+01 5.567378e+00 -4.373086e-01 -3.972308e-01 8.068264e-01 182 187 187
1.960000e+02 9.400000e+01 6.087244e+00 -4.238632e-01 -3.992449e-01 8.129843e-01 183 187 188
1.970000e+02 9.400000e+01 6.590151e+00 -4.153742e-01 -4.077222e-01 8.131586e-01 183 188 188
1.980000e+02 9.400000e+01 7.083685e+00 -4.110442e-01 -4.084482e-01 8.149924e-01 184 188 188
1.990000e+02 9.400000e+01 7.572081e+00 -3.965348e-01 -4.084293e-01 8.221591e-01 183 187 187
2.000000e+02 9.400000e+01 8.039517e+00 -3.909394e-01 -4.165794e-01 8.207484e-01 184 187 187
2.010000e+02 9.400000e+01 8.506788e+00 -3.827321e-01 -4.164409e-01 8.246776e-01 182 186 186
2.020000e+02 9.400000e+01 8.963827e+00 -3.753968e-01 -4.232325e-01 8.245917e-01 182 186 186
2.030000e+02 9.400000e+01 9.401839e+00 -3.715883e-01 -4.308616e-01 8.223627e-01 182 186 187
2.040000e+02 9.400000e+01 9.832236e+00 -3.593906e-01 -4.381133e-01 8.239509e-01 182 185 188
2.050000e+02 9.400000e+01 1.024499e+01 -3.519388e-01 -4.395803e-01 8.263826e-01 183 186 188
2.060000e+02 9.400000e+01 1.064977e+01 -3.451566e-01 -4.388116e-01 8.296453e-01 183 186 188
2.070000e+02 9.400000e+01 1.104712e+01 -3.343159e-01 -4.415621e-01 8.326198e-01 182 185 188
2.080000e+02 9.400000e+01 1.143084e+01 -3.193260e-01 -4.417143e-01 8.384029e-01 183 186 189
2.090000e+02 9.400000e+01 1.180114e+01 -3.164304e-01 -4.341828e-01 8.434199e-01 184 186 188
2.100000e+02 9.400000e+01 1.216612e+01 -3.129940e-01 -4.417433e-01 8.407721e-01 183 185 187
2.110000e+02 9.400000e+01 1.252168e+01 -3.076639e-01 -4.403518e-01 8.434650e-01 185 186 188
2.120000e+02 9.400000e+01 1.286312e+01 -3.076304e-01 -4.477043e-01 8.395978e-01 185 186 188
2.130000e+02 9.400000e+01 1.320835e+01 -2.923820e-01 -4.367834e-01 8.507250e-01 186 186 189
2.140000e+02 9.400000e+01 1.352807e+01 -2.816444e-01 -4.497131e-01 8.476052e-01 187 186 189
2.150000e+02 9.400000e+01 1.383728e+01 -2.688435e-01 -4.530182e-01 8.499987e-01 188 186 189
2.160000e+02 9.400000e+01 1.413427e+01 -2.647242e-01 -4.629940e-01 8.459064e-01 187 186 189
2.170000e+02 9.400000e+01 1.442821e+01 -2.668482e-01 -4.767330e-01 8.375665e-01 183 184 186
2.180000e+02 9.400000e+01 1.474656e+01 -2.730997e-01 -4.971358e-01 8.235730e-01 177 181 181
2.190000e+02 9.400000e+01 1.508659e+01 -2.746334e-01 -5.098418e-01 8.152533e-01 173 175 176
2.200000e+02 9.400000e+01 1.542415e+01 -2.823298e-01 -5.133747e-01 8.103927e-01 174 178 178
2.210000e+02 9.400000e+01 1.576211e+01 -2.669648e-01 -4.873033e-01 8.314237e-01 179 183 185
2.220000e+02 9.400000e+01 1.605973e+01 -2.375840e-01 -4.716876e-01 8.491553e-01 184 185 188
2.230000e+02 9.400000e+01 1.631703e+01 -2.144157e-01 -4.754669e-01 8.532040e-01 185 185 189
2.240000e+02 9.400000e+01 1.655592e+01 -2.052403e-01 -4.735067e-01 8.565441e-01 184 185 189
2.250000e+02 9.400000e+01 1.678031e+01 -1.964870e-01 -4.676207e-01 8.618142e-01 184 185 188
2.260000e+02 9.400000e+01 1.699398e+01 -1.875503e-01 -4.682079e-01 8.634850e-01 185 186 189
2.270000e+02 9.400000e+01 1.719471e+01 -1.780645e-01 -4.708129e-01 8.640765e-01 186 186 189
2.280000e+02 9.400000e+01 1.739105e+01 -1.724871e-01 -4.722545e-01 8.644211e-01 185 187 189
2.290000e+02 9.400000e+01 1.757830e+01 -1.650275e-01 -4.794258e-01 8.619263e-01 185 187 190
2.300000e+02 9.400000e+01 1.775758e+01 -1.408854e-01 -4.738563e-01 8.692592e-01 184 186 189
2.310000e+02 9.400000e+01 1.791196e+01 -1.409677e-01 -4.816857e-01 8.649318e-01 185 185 189
2.320000e+02 9.400000e+01 1.806230e+01 -1.297636e-01 -4.807269e-01 8.672157e-01 185 186 188
2.330000e+02 9.400000e+01 1.820461e+01 -1.213099e-01 -4.736778e-01 8.723034e-01 182 183 184
2.340000e+02 9.400000e+01 1.833780e+01 -1.242494e-01 -4.842048e-01 8.660876e-01 175 178 179
2.350000e+02 9.400000e+01 1.847185e+01 -1.151827e-01 -4.880214e-01 8.651983e-01 175 177 178
2.360000e+02 9.400000e+01 1.858985e+01 -8.880214e-02 -4.945885e-01 8.645787e-01 180 182 185
2.370000e+02 9.400000e+01 1.868741e+01 -7.403127e-02 -4.944612e-01 8.660413e-01 184 185 188
2.380000e+02 9.400000e+01 1.877291e+01 -5.757278e-02 -4.965349e-01 8.661054e-01 185 186 189
2.390000e+02 9.400000e+01 1.884105e+01 -4.914044e-02 -4.966451e-01 8.665615e-01 185 185 189
2.400000e+02 9.400000e+01 1.889560e+01 -3.267801e-02 -4.949857e-01 8.682864e-01 186 185 188
2.410000e+02 9.400000e+01 1.893482e+01 -2.292946e-02 -4.917167e-01 8.704533e-01 186 184 188
2.420000e+02 9.400000e+01 1.896254e+01 -2.109919e-02 -4.828212e-01 8.754647e-01 185 184 188
2.430000e+02 9.400000e+01 1.898518e+01 -1.259170e-02 -4.790391e-01 8.777032e-01 186 185 189
2.440000e+02 9.400000e+01 1.899445e+01 4.567252e-04 -4.696191e-01 8.828690e-01 186 185 190
2.450000e+02 9.400000e+01 1.898364e+01 1.149083e-02 -4.831661e-01 8.754533e-01 186 185 189
2.460000e+02 9.400000e+01 1.896157e+01 2.319166e-02 -4.829608e-01 8.753348e-01 186 186 189
2.470000e+02 9.400000e+01 1.892824e+01 3.210065e-02 -4.950227e-01 8.682869e-01 187 186 190
2.480000e+02 9.400000e+01 1.888595e+01 4.610592e-02 -4.896866e-01 8.706786e-01 186 185 190
2.490000e+02 9.400000e+01 1.882482e+01 5.573675e-02 -4.915940e-01 8.690390e-01 186 186 190
2.500000e+02 9.400000e+01 1.875441e+01 6.191852e-02 -4.964383e-01 8.658609e-01 184 184 188
2.510000e+02 9.400000e+01 1.867060e+01 6.805214e-02 -5.035716e-01 8.612691e-01 182 183 186
2.520000e+02 9.400000e+01 1.857815e+01 8.013855e-02 -5.034141e-01 8.603209e-01 182 183 188
2.530000e+02 9.400000e+01 1.846902e+01 9.051721e-02 -4.978261e-01 8.625403e-01 184 185 188
2.540000e+02 9.400000e+01 1.833818e+01 1.119033e-01 -5.080245e-01 8.540426e-01 184 185 188
2.550000e+02 9.400000e+01 1.818875e+01 1.153123e-01 -5.240510e-01 8.438446e-01 184 185 188
2.560000e+02 9.400000e+01 1.803560e+01 1.299808e-01 -5.220577e-01 8.429476e-01 183 186 186
2.570000e+02 9.400000e+01 1.785953e+01 1.393064e-01 -5.235241e-01 8.405452e-01 183 185 186
2.580000e+02 9.400000e+01 1.767531e+01 1.496453e-01 -5.231971e-01 8.389703e-01 183 184 185
2.590000e+02 9.400000e+01 1.747889e+01 1.635575e-01 -5.183720e-01 8.393684e-01 182 183 185
2.600000e+02 9.400000e+01 1.726809e+01 1.771882e-01 -5.171310e-01 8.373649e-01 183 184 184
2.610000e+02 9.400000e+01 1.704128e+01 1.814804e-01 -5.170248e-01 8.365108e-01 185 186 186
2.620000e+02 9.400000e+01 1.681093e+01 1.957698e-01 -5.147493e-01 8.346900e-01 187 188 188
2.630000e+02 9.400000e+01 1.656580e+01 2.081384e-01 -5.101459e-01 8.345235e-01 187 189 189
2.640000e+02 9.400000e+01 1.630082e+01 2.139552e-01 -5.062249e-01 8.354397e-01 187 189 190
2.650000e+02 9.400000e+01 1.602089e+01 2.318878e-01 -5.131198e-01 8.263995e-01 187 190 191
2.660000e+02 9.400000e+01 1.573245e+01 2.441001e-01 -5.060606e-01 8.272350e-01 188 191 191
2.670000e+02 9.400000e+01 1.543283e+01 2.594845e-01 -5.039895e-01 8.238097e-01 190 191 191
2.680000e+02 9.400000e+01 1.510941e+01 2.590274e-01 -5.081757e-01 8.213782e-01 190 190 190
2.690000e+02 9.400000e+01 1.478379e+01 2.696361e-01 -5.076931e-01 8.182567e-01 189 190 191
2.700000e+02 9.400000e+01 1.444403e+01 2.784684e-01 -5.066391e-01 8.159486e-01 188 189 190
2.710000e+02 9.400000e+01 1.409265e+01 2.931233e-01 -5.105524e-01 8.083409e-01 187 187 187
2.720000e+02 9.400000e+01 1.371676e+01 3.007424e-01 -5.099384e-01 8.059260e-01 185 186 185
2.730000e+02 9.400000e+01 1.333209e+01 3.151726e-01 -5.073161e-01 8.020577e-01 186 185 184
2.740000e+02 9.400000e+01 1.293585e+01 3.220437e-01 -5.039885e-01 8.014259e-01 185 186 185
2.750000e+02 9.400000e+01 1.252161e+01 3.241076e-01 -5.091134e-01 7.973442e-01 186 187 188
2.760000e+02 9.400000e+01 1.209821e+01 3.422877e-01 -5.097946e-01 7.892709e-01 187 189 188
2.770000e+02 9.400000e+01 1.165643e+01 3.438067e-01 -5.051185e-01 7.916137e-01 185 188 187
2.780000e+02 9.400000e+01 1.121556e+01 3.461482e-01 -4.965773e-01 7.959852e-01 186 187 186
2.790000e+02 9.400000e+01 1.076914e+01 3.520229e-01 -4.975619e-01 7.927875e-01 185 188 187
2.800000e+02 9.400000e+01 1.030777e+01 3.521692e-01 -4.965302e-01 7.933692e-01 186 189 188
2.810000e+02 9.400000e+01 9.842735e+00 3.740931e-01 -4.991810e-01 7.815834e-01 188 191 191
2.820000e+02 9.400000e+01 9.346136e+00 3.850021e-01 -4.947567e-01 7.790952e-01 189 192 194
2.830000e+02 9.400000e+01 8.836112e+00 3.872144e-01 -4.929984e-01 7.791133e-01 188 190 192
2.840000e+02 9.400000e+01 8.321931e+00 3.868938e-01 -4.937185e-01 7.788166e-01 188 190 190
2.850000e+02 9.400000e+01 7.808306e+00 3.970108e-01 -4.841047e-01 7.797596e-01 189 190 192
2.860000e+02 9.400000e+01 7.277868e+00 4.101213e-01 -4.778799e-01 7.768084e-01 187 190 190
2.870000e+02 9.400000e+01 6.725090e+00 4.314343e-01 -4.901345e-01 7.573854e-01 187 191 191
2.880000e+02 9.400000e+01 6.134932e+00 4.474685e-01 -5.015974e-01 7.403864e-01 190 191 192
2.890000e+02 9.400000e+01 5.517270e+00 4.587929e-01 -5.062089e-01 7.302476e-01 191 191 192
2.900000e+02 9.400000e+01 4.882000e+00 4.670740e-01 -5.090780e-01 7.229671e-01 190 190 191
2.910000e+02 9.400000e+01 4.240769e+00 4.657506e-01 -5.007587e-01 7.296007e-01 188 187 187
2.920000e+02 9.400000e+01 3.593463e+00 4.692074e-01 -4.900765e-01 7.346220e-01 187 187 187
2.930000e+02 9.400000e+01 2.947377e+00 4.785803e-01 -4.930935e-01 7.265120e-01 189 189 191
2.940000e+02 9.400000e+01 2.282665e+00 4.836576e-01 -4.914982e-01 7.242271e-01 187 187 190
2.950000e+02 9.400000e+01 1.608896e+00 4.956154e-01 -4.902485e-01 7.169531e-01 188 188 190
2.960000e+02 9.400000e+01 9.143415e-01 5.033785e-01 -4.896427e-01 7.119411e-01 189 190 192
2.970000e+02 9.400000e+01 2.136955e-01 5.056218e-01 -4.904115e-01 7.098191e-01 189 189 192
2.980000e+02 9.400000e+01 -4.908046e-01 5.117054e-01 -4.876858e-01 7.073331e-01 185 186 189
2.990000e+02 9.400000e+01 -1.210492e+00 5.267099e-01 -4.812883e-01 7.006698e-01 186 188 190
3.000000e+02 9.400000e+01 -1.964680e+00 5.295786e-01 -4.811408e-01 6.986058e-01 188 190 192
3.010000e+02 9.400000e+01 -2.727733e+00 5.329849e-01 -4.816261e-01 6.956748e-01 192 190 192
3.020000e+02 9.400000e+01 -3.503821e+00 5.446483e-01 -4.749261e-01 6.912333e-01 190 191 193
3.030000e+02 9.400000e+01 -4.299851e+00 5.484457e-01 -4.714331e-01 6.906216e-01 190 190 194
3.040000e+02 9.400000e+01 -5.099768e+00 5.538091e-01 -4.753629e-01 6.836121e-01 194 190 194
3.050000e+02 9.400000e+01 -5.910280e+00 5.656094e-01 -4.775196e-01 6.723548e-01 193 191 195
3.060000e+02 9.400000e+01 -6.744253e+00 5.762320e-01 -4.714190e-01 6.676232e-01 191 190 195
3.070000e+02 9.400000e+01 -7.604116e+00 5.795330e-01 -4.661651e-01 6.684547e-01 187 187 193
3.080000e+02 9.400000e+01 -8.484472e+00 5.832062e-01 -4.689604e-01 6.632847e-01 184 186 188
3.090000e+02 9.400000e+01 -9.382769e+00 6.001209e-01 -4.720432e-01 6.457786e-01 184 186 188
3.100000e+02 9.400000e+01 -1.031277e+01 6.069999e-01 -4.729195e-01 6.386692e-01 183 186 185
3.110000e+02 9.400000e+01 -1.125139e+01 6.204441e-01 -4.581771e-01 6.364926e-01 182 184 183
3.120000e+02 9.400000e+01 -1.221480e+01 6.320215e-01 -4.664986e-01 6.188117e-01 180 182 181
3.130000e+02 9.400000e+01 -1.321320e+01 6.432550e-01 -4.542438e-01 6.163486e-01 180 183 182
3.140000e+02 9.400000e+01 -1.423364e+01 6.517618e-01 -4.543241e-01 6.072859e-01 181 184 184
3.150000e+02 9.400000e+01 -1.527501e+01 6.594303e-01 -4.563059e-01 5.974417e-01 183 186 184
3.160000e+02 9.400000e+01 -1.634614e+01 6.625585e-01 -4.527978e-01 5.966493e-01 184 188 184
3.170000e+02 9.400000e+01 -1.743636e+01 6.712653e-01 -4.483487e-01 5.902426e-01 187 191 189
3.180000e+02 9.400000e+01 -1.854263e+01 6.775426e-01 -4.498230e-01 5.818894e-01 189 192 190
3.190000e+02 9.400000e+01 -1.966709e+01 6.829388e-01 -4.397218e-01 5.833004e-01 186 190 187
3.200000e+02 9.400000e+01 -2.080237e+01 6.924006e-01 -4.429733e-01 5.695227e-01 185 191 187
3.210000e+02 9.400000e+01 -2.197347e+01 7.001882e-01 -4.408376e-01 5.616037e-01 184 190 185
3.220000e+02 9.400000e+01 -2.317753e+01 7.078206e-01 -4.305571e-01 5.600095e-01 184 187 182
3.230000e+02 9.400000e+01 -2.441562e+01 7.119682e-01 -4.347715e-01 5.514299e-01 183 186 185
3.240000e+02 9.400000e+01 -2.567997e+01 7.225832e-01 -4.357645e-01 5.366403e-01 185 191 190
3.250000e+02 9.400000e+01 -2.698417e+01 7.315131e-01 -4.287837e-01 5.301256e-01 186 193 189
3.260000e+02 9.400000e+01 -2.832132e+01 7.409829e-01 -4.227503e-01 5.217533e-01 186 192 190
3.270000e+02 9.400000e+01 -2.968868e+01 7.485564e-01 -4.134253e-01 5.184042e-01 188 194 192
3.280000e+02 9.400000e+01 -3.108675e+01 7.576262e-01 -4.106413e-01 5.073226e-01 186 193 189
3.290000e+02 9.400000e+01 -3.252321e+01 7.690964e-01 -4.024962e-01 4.964752e-01 185 190 187
3.300000e+02 9.400000e+01 -3.401041e+01 7.820864e-01 -3.923198e-01 4.841757e-01 182 188 185
3.310000e+02 9.400000e+01 -3.555394e+01 7.938006e-01 -3.921494e-01 4.648650e-01 180 185 183
3.320000e+02 9.400000e+01 -3.719311e+01 8.036820e-01 -4.082696e-01 4.329102e-01 176 179 180
3.330000e+02 9.400000e+01 -3.895431e+01 8.115556e-01 -4.090408e-01 4.172087e-01 176 178 182
3.340000e+02 9.400000e+01 -4.078222e+01 8.134992e-01 -4.130250e-01 4.094258e-01 177 179 183
3.350000e+02 9.400000e+01 -4.266471e+01 8.215606e-01 -4.040351e-01 4.022361e-01 174 177 179
3.360000e+02 9.400000e+01 -4.463760e+01 8.346442e-01 -4.037105e-01 3.746824e-01 169 175 172
3.370000e+02 9.400000e+01 -4.678371e+01 8.438106e-01 -3.954779e-01 3.627408e-01 169 177 176
3.380000e+02 9.400000e+01 -4.901299e+01 8.584026e-01 -3.716315e-01 3.536029e-01 168 177 176
3.390000e+02 9.400000e+01 -5.134101e+01 8.723026e-01 -3.526340e-01 3.387293e-01 171 177 173
3.400000e+02 9.400000e+01 -5.378599e+01 8.870253e-01 -3.136878e-01 3.388010e-01 167 163 157
1.480000e+02 9.500000e+01 -4.521655e+01 -1.734769e-01 -6.593248e-01 7.315713e-01 20 19 20
1.490000e+02 9.500000e+01 -4.435676e+01 -7.942680e-01 -5.294533e-01 2.980227e-01 98 101 97
1.500000e+02 9.500000e+01 -4.124694e+01 -8.325726e-01 -4.733575e-01 2.876728e-01 178 178 173
1.510000e+02 9.500000e+01 -3.815855e+01 -8.411391e-01 -4.137238e-01 3.483069e-01 188 188 187
1.520000e+02 9.500000e+01 -3.569573e+01 -8.410300e-01 -3.591984e-01 4.045307e-01 191 190 188
1.530000e+02 9.500000e+01 -3.363595e+01 -8.379230e-01 -3.309887e-01 4.339719e-01 187 186 184
1.540000e+02 9.500000e+01 -3.176557e+01 -8.290544e-01 -3.223043e-01 4.569340e-01 186 183 180
1.550000e+02 9.500000e+01 -3.001986e+01 -8.174178e-01 -3.130628e-01 4.835491e-01 183 180 178
1.560000e+02 9.500000e+01 -2.839406e+01 -8.045645e-01 -3.082613e-01 5.075933e-01 182 180 177
1.570000e+02 9.500000e+01 -2.686631e+01 -7.910031e-01 -3.108956e-01 5.269326e-01 179 179 176
1.580000e+02 9.500000e+01 -2.540750e+01 -7.795214e-01 -3.158443e-01 5.409147e-01 180 181 177
1.590000e+02 9.500000e+01 -2.401391e+01 -7.650770e-01 -3.291741e-01 5.534452e-01 178 179 175
1.600000e+02 9.500000e+01 -2.268330e+01 -7.561241e-01 -3.244285e-01 5.683507e-01 176 176 173
1.610000e+02 9.500000e+01 -2.140844e+01 -7.453412e-01 -3.408178e-01 5.729832e-01 177 176 172
1.620000e+02 9.500000e+01 -2.015503e+01 -7.342026e-01 -3.437545e-01 5.854737e-01 176 174 171
1.630000e+02 9.500000e+01 -1.895090e+01 -7.257063e-01 -3.386595e-01 5.988824e-01 177 174 171
1.640000e+02 9.500000e+01 -1.779087e+01 -7.146773e-01 -3.295634e-01 6.169476e-01 177 176 173
1.650000e+02 9.500000e+01 -1.668169e+01 -7.043641e-01 -3.395349e-01 6.233677e-01 179 179 176
1.660000e+02 9.500000e+01 -1.559844e+01 -6.926809e-01 -3.452586e-01 6.332374e-01 182 181 177
1.670000e+02 9.500000e+01 -1.454629e+01 -6.830242e-01 -3.534485e-01 6.391808e-01 181 180 176
1.680000e+02 9.500000e+01 -1.351649e+01 -6.749509e-01 -3.501706e-01 6.494781e-01 179 179 177
1.690000e+02 9.500000e+01 -1.252659e+01 -6.599676e-01 -3.615272e-01 6.585900e-01 180 179 177
1.700000e+02 9.500000e+01 -1.156545e+01 -6.492236e-01 -3.617553e-01 6.690604e-01 179 179 177
1.710000e+02 9.500000e+01 -1.063505e+01 -6.422850e-01 -3.573567e-01 6.780606e-01 179 180 177
1.720000e+02 9.500000e+01 -9.724806e+00 -6.354806e-01 -3.506133e-01 6.879206e-01 179 181 179
1.730000e+02 9.500000e+01 -8.847314e+00 -6.246805e-01 -3.575549e-01 6.942109e-01 179 180 178
1.740000e+02 9.500000e+01 -7.989959e+00 -6.137665e-01 -3.591367e-01 7.030729e-01 178 179 179
1.750000e+02 9.500000e+01 -7.149644e+00 -6.056291e-01 -3.542354e-01 7.125522e-01 180 179 182
1.760000e+02 9.500000e+01 -6.335407e+00 -5.973519e-01 -3.570484e-01 7.181136e-01 180 178 183
1.770000e+02 9.500000e+01 -5.538900e+00 -5.818715e-01 -3.553758e-01 7.315283e-01 179 178 182
1.780000e+02 9.500000e+01 -4.771117e+00 -5.770776e-01 -3.481578e-01 7.387609e-01 178 180 182
1.790000e+02 9.500000e+01 -4.022150e+00 -5.742551e-01 -3.508736e-01 7.396748e-01 179 181 182
1.800000e+02 9.500000e+01 -3.279574e+00 -5.659056e-01 -3.490303e-01 7.469462e-01 180 180 181
1.810000e+02 9.500000e+01 -2.559032e+00 -5.540951e-01 -3.609674e-01 7.501208e-01 179 181 182
1.820000e+02 9.500000e+01 -1.847799e+00 -5.541141e-01 -3.605398e-01 7.503123e-01 178 183 184
1.830000e+02 9.500000e+01 -1.138440e+00 -5.391944e-01 -3.617478e-01 7.605314e-01 179 184 185
1.840000e+02 9.500000e+01 -4.586362e-01 -5.309325e-01 -3.686508e-01 7.630251e-01 179 184 183
1.850000e+02 9.500000e+01 2.135426e-01 -5.194895e-01 -3.591303e-01 7.753426e-01 178 181 182
1.860000e+02 9.500000e+01 8.603692e-01 -5.140407e-01 -3.669833e-01 7.752970e-01 179 179 182
1.870000e+02 9.500000e+01 1.495351e+00 -5.055777e-01 -3.733284e-01 7.778285e-01 181 180 184
1.880000e+02 9.500000e+01 2.118033e+00 -4.968549e-01 -3.697797e-01 7.851103e-01 180 181 184
1.890000e+02 9.500000e+01 2.728198e+00 -4.924091e-01 -3.809628e-01 7.825603e-01 179 182 183
1.900000e+02 9.500000e+01 3.330151e+00 -4.831009e-01 -3.719130e-01 7.926502e-01 180 184 184
1.910000e+02 9.500000e+01 3.908088e+00 -4.792297e-01 -3.713470e-01 7.952612e-01 182 185 186
1.920000e+02 9.500000e+01 4.475495e+00 -4.706980e-01 -3.696212e-01 8.011389e-01 183 187 185
1.930000e+02 9.500000e+01 5.027863e+00 -4.520155e-01 -3.713729e-01 8.110267e-01 182 186 184
1.940000e+02 9.500000e+01 5.556360e+00 -4.429518e-01 -3.891373e-01 8.076917e-01 182 187 185
1.950000e+02 9.500000e+01 6.084527e+00 -4.383895e-01 -3.883117e-01 8.105731e-01 183 188 187
1.960000e+02 9.500000e+01 6.603602e+00 -4.253505e-01 -3.944957e-01 8.145244e-01 183 187 188
1.970000e+02 9.500000e+01 7.106397e+00 -4.160688e-01 -4.017176e-01 8.157878e-01 185 188 189
1.980000e+02 9.500000e+01 7.597196e+00 -4.174190e-01 -4.009942e-01 8.154539e-01 186 188 188
1.990000e+02 9.500000e+01 8.084879e+00 -3.992169e-01 -4.075448e-01 8.212996e-01 184 187 187
2.000000e+02 9.500000e+01 8.555490e+00 -3.925882e-01 -4.135587e-01 8.214887e-01 183 187 187
2.010000e+02 9.500000e+01 9.022181e+00 -3.895660e-01 -4.102023e-01 8.246044e-01 182 186 187
2.020000e+02 9.500000e+01 9.478260e+00 -3.717755e-01 -4.291437e-01 8.231760e-01 182 185 185
2.030000e+02 9.500000e+01 9.920601e+00 -3.678483e-01 -4.265383e-01 8.262885e-01 183 186 186
2.040000e+02 9.500000e+01 1.035238e+01 -3.525230e-01 -4.329815e-01 8.296111e-01 182 185 187
2.050000e+02 9.500000e+01 1.076158e+01 -3.477356e-01 -4.378539e-01 8.290742e-01 182 185 188
2.060000e+02 9.500000e+01 1.116510e+01 -3.422846e-01 -4.347066e-01 8.329895e-01 182 185 187
2.070000e+02 9.500000e+01 1.155906e+01 -3.283515e-01 -4.376434e-01 8.370505e-01 183 185 187
2.080000e+02 9.500000e+01 1.193689e+01 -3.213964e-01 -4.397672e-01 8.386353e-01 183 186 188
2.090000e+02 9.500000e+01 1.230903e+01 -3.119857e-01 -4.304994e-01 8.469564e-01 184 186 187
2.100000e+02 9.500000e+01 1.267123e+01 -3.104167e-01 -4.337379e-01 8.458800e-01 184 186 187
2.110000e+02 9.500000e+01 1.302565e+01 -3.078384e-01 -4.401129e-01 8.435260e-01 185 186 187
2.120000e+02 9.500000e+01 1.337796e+01 -3.001151e-01 -4.388846e-01 8.469423e-01 186 186 188
2.130000e+02 9.500000e+01 1.371612e+01 -2.878159e-01 -4.328356e-01 8.542923e-01 187 187 190
2.140000e+02 9.500000e+01 1.403552e+01 -2.858141e-01 -4.451684e-01 8.486079e-01 187 187 189
2.150000e+02 9.500000e+01 1.434556e+01 -2.783630e-01 -4.591843e-01 8.436017e-01 187 187 189
2.160000e+02 9.500000e+01 1.465211e+01 -2.654394e-01 -4.638644e-01 8.452051e-01 184 185 187
2.170000e+02 9.500000e+01 1.495143e+01 -2.890898e-01 -4.952264e-01 8.192545e-01 176 178 180
2.180000e+02 9.500000e+01 1.529983e+01 -3.069392e-01 -5.139371e-01 8.010349e-01 171 175 176
2.190000e+02 9.500000e+01 1.568152e+01 -3.016937e-01 -4.892107e-01 8.183238e-01 173 176 176
2.200000e+02 9.500000e+01 1.603191e+01 -2.838457e-01 -4.820399e-01 8.288964e-01 178 182 181
2.210000e+02 9.500000e+01 1.634122e+01 -2.464961e-01 -4.708903e-01 8.470549e-01 183 185 188
2.220000e+02 9.500000e+01 1.660738e+01 -2.321166e-01 -4.657375e-01 8.539382e-01 186 187 190
2.230000e+02 9.500000e+01 1.686262e+01 -2.149675e-01 -4.679327e-01 8.572211e-01 186 186 190
2.240000e+02 9.500000e+01 1.710277e+01 -2.014793e-01 -4.653360e-01 8.618982e-01 185 186 189
2.250000e+02 9.500000e+01 1.732752e+01 -1.963401e-01 -4.609668e-01 8.654249e-01 184 186 189
2.260000e+02 9.500000e+01 1.754447e+01 -1.820403e-01 -4.652208e-01 8.662741e-01 186 186 189
2.270000e+02 9.500000e+01 1.774842e+01 -1.780742e-01 -4.670612e-01 8.661082e-01 187 186 190
2.280000e+02 9.500000e+01 1.795152e+01 -1.637959e-01 -4.564954e-01 8.745186e-01 187 187 191
2.290000e+02 9.500000e+01 1.813403e+01 -1.662898e-01 -4.649571e-01 8.695761e-01 188 188 191
2.300000e+02 9.500000e+01 1.831106e+01 -1.510291e-01 -4.728019e-01 8.681294e-01 187 187 190
2.310000e+02 9.500000e+01 1.847407e+01 -1.328000e-01 -4.804402e-01 8.669149e-01 187 187 190
2.320000e+02 9.500000e+01 1.862124e+01 -1.248193e-01 -4.754083e-01 8.708657e-01 186 187 190
2.330000e+02 9.500000e+01 1.875686e+01 -1.264138e-01 -4.753976e-01 8.706415e-01 184 185 188
2.340000e+02 9.500000e+01 1.889374e+01 -1.338592e-01 -4.784641e-01 8.678443e-01 178 180 182
2.350000e+02 9.500000e+01 1.902970e+01 -1.204402e-01 -4.845238e-01 8.664473e-01 175 177 180
2.360000e+02 9.500000e+01 1.915516e+01 -9.613008e-02 -4.943687e-01 8.639205e-01 178 181 185
2.370000e+02 9.500000e+01 1.926290e+01 -6.746343e-02 -4.912907e-01 8.683790e-01 183 186 189
2.380000e+02 9.500000e+01 1.934761e+01 -5.967370e-02 -4.861940e-01 8.718110e-01 185 187 190
2.390000e+02 9.500000e+01 1.941943e+01 -4.908782e-02 -4.855363e-01 8.728373e-01 186 186 190
2.400000e+02 9.500000e+01 1.947250e+01 -2.909103e-02 -4.926958e-01 8.697152e-01 186 185 189
2.410000e+02 9.500000e+01 1.950377e+01 -2.842088e-02 -4.966411e-01 8.674906e-01 186 185 188
2.420000e+02 9.500000e+01 1.953484e+01 -1.547981e-02 -4.857161e-01 8.739796e-01 185 185 189
2.430000e+02 9.500000e+01 1.955376e+01 -9.151352e-03 -4.791443e-01 8.776884e-01 184 185 189
2.440000e+02 9.500000e+01 1.956238e+01 -2.308767e-04 -4.769856e-01 8.789111e-01 185 185 189
2.450000e+02 9.500000e+01 1.956257e+01 1.474517e-02 -4.843656e-01 8.747414e-01 185 185 188
2.460000e+02 9.500000e+01 1.954490e+01 1.446810e-02 -4.766911e-01 8.789518e-01 185 185 189
2.470000e+02 9.500000e+01 1.952173e+01 3.576528e-02 -4.816567e-01 8.756298e-01 186 185 189
2.480000e+02 9.500000e+01 1.947206e+01 4.473872e-02 -4.902851e-01 8.704131e-01 186 186 190
2.490000e+02 9.500000e+01 1.941384e+01 5.364290e-02 -4.979379e-01 8.655520e-01 187 187 191
2.500000e+02 9.500000e+01 1.935000e+01 6.503092e-02 -4.936925e-01 8.672016e-01 185 185 189
2.510000e+02 9.500000e+01 1.927004e+01 7.048615e-02 -4.976875e-01 8.644876e-01 183 184 187
2.520000e+02 9.500000e+01 1.917935e+01 8.325365e-02 -4.990748e-01 8.625504e-01 184 184 188
2.530000e+02 9.500000e+01 1.907692e+01 1.071653e-01 -4.881306e-01 8.661663e-01 186 186 189
2.540000e+02 9.500000e+01 1.894947e+01 1.067971e-01 -4.904838e-01 8.648815e-01 185 186 189
2.550000e+02 9.500000e+01 1.880992e+01 1.200332e-01 -5.082833e-01 8.527837e-01 185 184 188
2.560000e+02 9.500000e+01 1.865158e+01 1.316641e-01 -5.113083e-01 8.492516e-01 184 185 188
2.570000e+02 9.500000e+01 1.847446e+01 1.368897e-01 -5.146993e-01 8.463722e-01 184 185 187
2.580000e+02 9.500000e+01 1.828823e+01 1.469591e-01 -5.150904e-01 8.444435e-01 183 184 186
2.590000e+02 9.500000e+01 1.808757e+01 1.530987e-01 -5.170249e-01 8.421675e-01 183 184 185
2.600000e+02 9.500000e+01 1.787789e+01 1.696392e-01 -5.194951e-01 8.374648e-01 182 184 185
2.610000e+02 9.500000e+01 1.765323e+01 1.876332e-01 -5.187296e-01 8.340944e-01 184 186 187
2.620000e+02 9.500000e+01 1.741388e+01 1.949739e-01 -5.111481e-01 8.370859e-01 187 188 188
2.630000e+02 9.500000e+01 1.716694e+01 2.092416e-01 -5.076731e-01 8.357547e-01 188 189 189
2.640000e+02 9.500000e+01 1.690378e+01 2.227806e-01 -5.001681e-01 8.367799e-01 187 189 190
2.650000e+02 9.500000e+01 1.662742e+01 2.289321e-01 -4.983651e-01 8.361952e-01 187 190 191
2.660000e+02 9.500000e+01 1.633921e+01 2.456708e-01 -4.945316e-01 8.337172e-01 187 190 191
2.670000e+02 9.500000e+01 1.603277e+01 2.563568e-01 -4.969286e-01 8.290616e-01 189 191 191
2.680000e+02 9.500000e+01 1.570853e+01 2.558412e-01 -5.072993e-01 8.229172e-01 190 191 191
2.690000e+02 9.500000e+01 1.538204e+01 2.688583e-01 -5.079344e-01 8.183629e-01 189 190 190
2.700000e+02 9.500000e+01 1.504263e+01 2.813282e-01 -5.054986e-01 8.156749e-01 188 189 188
2.710000e+02 9.500000e+01 1.468851e+01 2.926208e-01 -5.128768e-01 8.070505e-01 187 188 187
2.720000e+02 9.500000e+01 1.431579e+01 2.988578e-01 -5.102882e-01 8.064056e-01 186 186 186
2.730000e+02 9.500000e+01 1.393326e+01 3.086573e-01 -5.086796e-01 8.037261e-01 186 185 186
2.740000e+02 9.500000e+01 1.353699e+01 3.206036e-01 -5.008541e-01 8.039642e-01 186 186 186
2.750000e+02 9.500000e+01 1.312495e+01 3.306345e-01 -5.070345e-01 7.959879e-01 186 189 187
2.760000e+02 9.500000e+01 1.269872e+01 3.359896e-01 -5.110777e-01 7.911451e-01 187 189 187
2.770000e+02 9.500000e+01 1.226341e+01 3.451061e-01 -4.951953e-01 7.972976e-01 186 188 187
2.780000e+02 9.500000e+01 1.181581e+01 3.580227e-01 -4.943568e-01 7.921055e-01 186 188 187
2.790000e+02 9.500000e+01 1.135968e+01 3.649972e-01 -4.941305e-01 7.890577e-01 187 188 187
2.800000e+02 9.500000e+01 1.089474e+01 3.649380e-01 -4.866149e-01 7.937419e-01 189 189 188
2.810000e+02 9.500000e+01 1.042729e+01 3.735323e-01 -4.858970e-01 7.901758e-01 191 192 190
2.820000e+02 9.500000e+01 9.934863e+00 3.768807e-01 -4.835302e-01 7.900376e-01 190 191 191
2.830000e+02 9.500000e+01 9.430151e+00 3.878625e-01 -4.911841e-01 7.799365e-01 189 190 192
2.840000e+02 9.500000e+01 8.916447e+00 4.026686e-01 -4.864975e-01 7.753568e-01 190 190 192
2.850000e+02 9.500000e+01 8.385265e+00 4.064216e-01 -4.868491e-01 7.731749e-01 190 190 190
2.860000e+02 9.500000e+01 7.850436e+00 4.105811e-01 -4.807457e-01 7.747947e-01 188 191 190
2.870000e+02 9.500000e+01 7.309897e+00 4.253210e-01 -4.873426e-01 7.626265e-01 188 191 191
2.880000e+02 9.500000e+01 6.740015e+00 4.422982e-01 -4.935398e-01 7.488596e-01 189 191 192
2.890000e+02 9.500000e+01 6.138676e+00 4.593922e-01 -4.941526e-01 7.380867e-01 190 191 192
2.900000e+02 9.500000e+01 5.510100e+00 4.630606e-01 -5.008473e-01 7.312502e-01 188 189 190
2.910000e+02 9.500000e+01 4.871245e+00 4.688763e-01 -4.883656e-01 7.359715e-01 187 186 188
2.920000e+02 9.500000e+01 4.217070e+00 4.668271e-01 -4.936838e-01 7.337225e-01 188 186 188
2.930000e+02 9.500000e+01 3.564201e+00 4.795158e-01 -5.000956e-01 7.210888e-01 189 190 189
2.940000e+02 9.500000e+01 2.892974e+00 4.853562e-01 -4.977353e-01 7.188108e-01 188 189 190
2.950000e+02 9.500000e+01 2.218926e+00 4.896722e-01 -4.888537e-01 7.219718e-01 190 189 189
2.960000e+02 9.500000e+01 1.537080e+00 4.974974e-01 -4.818021e-01 7.213620e-01 190 191 191
2.970000e+02 9.500000e+01 8.411206e-01 5.075508e-01 -4.864254e-01 7.111838e-01 188 191 191
2.980000e+02 9.500000e+01 1.342075e-01 5.136704e-01 -4.693013e-01 7.182611e-01 187 188 190
2.990000e+02 9.500000e+01 -5.860055e-01 5.270874e-01 -4.712174e-01 7.072008e-01 189 189 191
3.000000e+02 9.500000e+01 -1.335544e+00 5.243770e-01 -4.717568e-01 7.088542e-01 188 189 190
3.010000e+02 9.500000e+01 -2.087416e+00 5.376361e-01 -4.720131e-01 6.986781e-01 189 191 192
3.020000e+02 9.500000e+01 -2.865503e+00 5.465908e-01 -4.746394e-01 6.898955e-01 191 192 196
3.030000e+02 9.500000e+01 -3.657461e+00 5.519186e-01 -4.676535e-01 6.904246e-01 193 194 195
3.040000e+02 9.500000e+01 -4.450207e+00 5.572540e-01 -4.655735e-01 6.875386e-01 195 194 194
3.050000e+02 9.500000e+01 -5.254616e+00 5.674466e-01 -4.664014e-01 6.785824e-01 192 193 194
3.060000e+02 9.500000e+01 -6.085197e+00 5.764355e-01 -4.601183e-01 6.752875e-01 189 190 195
3.070000e+02 9.500000e+01 -6.939869e+00 5.795564e-01 -4.583848e-01 6.737935e-01 188 189 193
3.080000e+02 9.500000e+01 -7.808315e+00 5.918129e-01 -4.652370e-01 6.582645e-01 186 188 188
3.090000e+02 9.500000e+01 -8.702242e+00 6.024616e-01 -4.606539e-01 6.517960e-01 186 188 190
3.100000e+02 9.500000e+01 -9.623784e+00 6.059567e-01 -4.652443e-01 6.452630e-01 187 187 189
3.110000e+02 9.500000e+01 -1.055648e+01 6.134545e-01 -4.540397e-01 6.461590e-01 187 185 185
3.120000e+02 9.500000e+01 -1.149649e+01 6.327525e-01 -4.526555e-01 6.282732e-01 183 186 183
3.130000e+02 9.500000e+01 -1.248898e+01 6.437488e-01 -4.504356e-01 6.186237e-01 182 185 182
3.140000e+02 9.500000e+01 -1.349962e+01 6.488968e-01 -4.359257e-01 6.236198e-01 180 184 181
3.150000e+02 9.500000e+01 -1.452792e+01 6.565566e-01 -4.453693e-01 6.087525e-01 180 184 182
3.160000e+02 9.500000e+01 -1.558912e+01 6.683338e-01 -4.452017e-01 5.959239e-01 184 188 185
3.170000e+02 9.500000e+01 -1.668090e+01 6.743933e-01 -4.464529e-01 5.881101e-01 186 189 189
3.180000e+02 9.500000e+01 -1.778635e+01 6.770836e-01 -4.442764e-01 5.866654e-01 188 191 188
3.190000e+02 9.500000e+01 -1.890876e+01 6.842525e-01 -4.433389e-01 5.790069e-01 186 191 189
3.200000e+02 9.500000e+01 -2.004305e+01 6.935057e-01 -4.442679e-01 5.671648e-01 187 191 191
3.210000e+02 9.500000e+01 -2.120689e+01 6.991539e-01 -4.277293e-01 5.729149e-01 187 190 186
3.220000e+02 9.500000e+01 -2.239743e+01 7.089572e-01 -4.257053e-01 5.622763e-01 184 188 183
3.230000e+02 9.500000e+01 -2.361844e+01 7.166194e-01 -4.301604e-01 5.490160e-01 185 190 185
3.240000e+02 9.500000e+01 -2.486454e+01 7.282856e-01 -4.158502e-01 5.446730e-01 188 192 188
3.250000e+02 9.500000e+01 -2.615502e+01 7.366785e-01 -4.148377e-01 5.340547e-01 189 193 190
3.260000e+02 9.500000e+01 -2.748432e+01 7.412045e-01 -4.108652e-01 5.308537e-01 188 192 190
3.270000e+02 9.500000e+01 -2.884040e+01 7.551164e-01 -4.089206e-01 5.124286e-01 188 193 193
3.280000e+02 9.500000e+01 -3.023936e+01 7.609539e-01 -4.018960e-01 5.093415e-01 188 194 192
3.290000e+02 9.500000e+01 -3.166239e+01 7.710684e-01 -3.921052e-01 5.017041e-01 189 192 190
3.300000e+02 9.500000e+01 -3.313055e+01 7.807180e-01 -3.836724e-01 4.932291e-01 186 190 188
3.310000e+02 9.500000e+01 -3.464341e+01 7.877654e-01 -3.823203e-01 4.829667e-01 184 189 186
3.320000e+02 9.500000e+01 -3.621444e+01 7.990705e-01 -3.929887e-01 4.550232e-01 180 182 182
3.330000e+02 9.500000e+01 -3.790555e+01 8.084153e-01 -3.916539e-01 4.393995e-01 179 178 181
3.340000e+02 9.500000e+01 -3.968397e+01 8.148078e-01 -4.002487e-01 4.193916e-01 177 177 180
3.350000e+02 9.500000e+01 -4.155314e+01 8.213514e-01 -3.947120e-01 4.118062e-01 176 178 182
3.360000e+02 9.500000e+01 -4.348849e+01 8.274789e-01 -3.976743e-01 3.964010e-01 172 177 178
3.370000e+02 9.500000e+01 -4.554619e+01 8.424618e-01 -3.874611e-01 3.743422e-01 171 177 177
3.380000e+02 9.500000e+01 -4.774198e+01 8.555830e-01 -3.728030e-01 3.591596e-01 173 178 179
3.390000e+02 9.500000e+01 -5.001495e+01 8.689446e-01 -3.526372e-01 3.472496e-01 175 179 178
3.400000e+02 9.500000e+01 -5.235071e+01 8.834539e-01 -3.316935e-01 3.308905e-01 175 175 172
3.410000e+02 9.500000e+01 -5.457315e+01 8.914875e-01 -2.724103e-01 3.619981e-01 138 132 124
1.470000e+02 9.600000e+01 -4.506213e+01 2.211432e-01 -5.943185e-01 7.732278e-01 17 16 17
1.480000e+02 9.600000e+01 -4.493796e+01 -6.580773e-01 -6.158421e-01 4.332123e-01 43 46 44
1.490000e+02 9.600000e+01 -4.310738e+01 -8.318758e-01 -4.821590e-01 2.747825e-01 155 158 152
1.500000e+02 9.600000e+01 -3.979306e+01 -8.404603e-01 -4.409726e-01 3.149121e-01 184 185 182
1.510000e+02 9.600000e+01 -3.700681e+01 -8.427216e-01 -3.884731e-01 3.727048e-01 189 187 187
1.520000e+02 9.600000e+01 -3.472710e+01 -8.417427e-01 -3.413875e-01 4.182389e-01 189 185 185
1.530000e+02 9.600000e+01 -3.273448e+01 -8.377226e-01 -3.101157e-01 4.494988e-01 184 178 178
1.540000e+02 9.600000e+01 -3.091396e+01 -8.278643e-01 -3.026911e-01 4.722487e-01 182 178 177
1.550000e+02 9.600000e+01 -2.922338e+01 -8.146694e-01 -3.040707e-01 4.938165e-01 183 182 179
1.560000e+02 9.600000e+01 -2.763879e+01 -8.034245e-01 -3.067598e-01 5.103013e-01 181 180 177
1.570000e+02 9.600000e+01 -2.613309e+01 -7.952287e-01 -3.080167e-01 5.222423e-01 179 179 175
1.580000e+02 9.600000e+01 -2.467140e+01 -7.778078e-01 -3.075100e-01 5.481356e-01 181 180 176
1.590000e+02 9.600000e+01 -2.329460e+01 -7.664379e-01 -3.049010e-01 5.653391e-01 179 177 174
1.600000e+02 9.600000e+01 -2.198593e+01 -7.537023e-01 -3.196392e-01 5.742505e-01 176 176 173
1.610000e+02 9.600000e+01 -2.070936e+01 -7.415612e-01 -3.288325e-01 5.847702e-01 177 176 174
1.620000e+02 9.600000e+01 -1.947082e+01 -7.298648e-01 -3.224198e-01 6.027793e-01 178 176 176
1.630000e+02 9.600000e+01 -1.829599e+01 -7.187525e-01 -3.259408e-01 6.141315e-01 177 178 176
1.640000e+02 9.600000e+01 -1.716970e+01 -7.113441e-01 -3.344629e-01 6.181619e-01 179 181 177
1.650000e+02 9.600000e+01 -1.605044e+01 -7.030634e-01 -3.259066e-01 6.320496e-01 180 180 177
1.660000e+02 9.600000e+01 -1.497301e+01 -6.910846e-01 -3.364298e-01 6.397007e-01 182 180 176
1.670000e+02 9.600000e+01 -1.392539e+01 -6.825090e-01 -3.359264e-01 6.491031e-01 181 179 177
1.680000e+02 9.600000e+01 -1.291029e+01 -6.744711e-01 -3.328769e-01 6.590005e-01 181 179 178
1.690000e+02 9.600000e+01 -1.192458e+01 -6.578901e-01 -3.422838e-01 6.708371e-01 180 180 179
1.700000e+02 9.600000e+01 -1.098053e+01 -6.459226e-01 -3.486585e-01 6.791327e-01 179 180 179
1.710000e+02 9.600000e+01 -1.006489e+01 -6.441037e-01 -3.459086e-01 6.822593e-01 178 182 179
1.720000e+02 9.600000e+01 -9.159456e+00 -6.339626e-01 -3.392432e-01 6.949859e-01 179 182 179
1.730000e+02 9.600000e+01 -8.286046e+00 -6.237074e-01 -3.531626e-01 6.973272e-01 179 181 179
1.740000e+02 9.600000e+01 -7.426957e+00 -6.121427e-01 -3.482597e-01 7.099271e-01 179 179 179
1.750000e+02 9.600000e+01 -6.602761e+00 -6.083785e-01 -3.593894e-01 7.076121e-01 179 180 182
1.760000e+02 9.600000e+01 -5.780296e+00 -5.956550e-01 -3.472961e-01 7.242794e-01 179 179 182
1.770000e+02 9.600000e+01 -4.994469e+00 -5.897737e-01 -3.442736e-01 7.305085e-01 180 179 182
1.780000e+02 9.600000e+01 -4.225013e+00 -5.738756e-01 -3.459002e-01 7.423071e-01 178 179 183
1.790000e+02 9.600000e+01 -3.476075e+00 -5.702029e-01 -3.360146e-01 7.496418e-01 179 180 184
1.800000e+02 9.600000e+01 -2.743712e+00 -5.630982e-01 -3.399443e-01 7.532319e-01 178 180 183
1.810000e+02 9.600000e+01 -2.020628e+00 -5.601766e-01 -3.454648e-01 7.528986e-01 179 184 183
1.820000e+02 9.600000e+01 -1.306456e+00 -5.489746e-01 -3.540881e-01 7.571318e-01 180 186 185
1.830000e+02 9.600000e+01 -6.086004e-01 -5.428290e-01 -3.498309e-01 7.635149e-01 180 187 185
1.840000e+02 9.600000e+01 7.092339e-02 -5.349335e-01 -3.507670e-01 7.686408e-01 179 185 184
1.850000e+02 9.600000e+01 7.293571e-01 -5.244750e-01 -3.613557e-01 7.709397e-01 180 184 184
1.860000e+02 9.600000e+01 1.381951e+00 -5.205991e-01 -3.539145e-01 7.769949e-01 179 183 185
1.870000e+02 9.600000e+01 2.018856e+00 -5.041687e-01 -3.676051e-01 7.814604e-01 179 181 185
1.880000e+02 9.600000e+01 2.637997e+00 -4.943935e-01 -3.658498e-01 7.884979e-01 180 183 185
1.890000e+02 9.600000e+01 3.248289e+00 -4.900489e-01 -3.564839e-01 7.954692e-01 181 184 184
1.900000e+02 9.600000e+01 3.837267e+00 -4.782204e-01 -3.658967e-01 7.983889e-01 181 185 185
1.910000e+02 9.600000e+01 4.412093e+00 -4.773197e-01 -3.570843e-01 8.029052e-01 182 187 185
1.920000e+02 9.600000e+01 4.975001e+00 -4.671774e-01 -3.658120e-01 8.049390e-01 182 187 184
1.930000e+02 9.600000e+01 5.526751e+00 -4.537284e-01 -3.660663e-01 8.124813e-01 183 187 184
1.940000e+02 9.600000e+01 6.065217e+00 -4.432654e-01 -3.754288e-01 8.139834e-01 183 187 185
1.950000e+02 9.600000e+01 6.589823e+00 -4.365092e-01 -3.840782e-01 8.135992e-01 184 188 187
1.960000e+02 9.600000e+01 7.110966e+00 -4.296428e-01 -3.785666e-01 8.198136e-01 183 189 188
1.970000e+02 9.600000e+01 7.613441e+00 -4.223014e-01 -3.907270e-01 8.179205e-01 184 188 189
1.980000e+02 9.600000e+01 8.106232e+00 -4.134378e-01 -3.932632e-01 8.212267e-01 185 188 188
1.990000e+02 9.600000e+01 8.588763e+00 -4.089695e-01 -3.964269e-01 8.219426e-01 183 186 187
2.000000e+02 9.600000e+01 9.063059e+00 -4.008475e-01 -4.066834e-01 8.209324e-01 182 185 185
2.010000e+02 9.600000e+01 9.535281e+00 -3.939616e-01 -3.955959e-01 8.296374e-01 181 184 184
2.020000e+02 9.600000e+01 9.993652e+00 -3.845276e-01 -4.105447e-01 8.267959e-01 181 184 183
2.030000e+02 9.600000e+01 1.043587e+01 -3.800151e-01 -4.092554e-01 8.295171e-01 181 184 183
2.040000e+02 9.600000e+01 1.086529e+01 -3.680432e-01 -4.159829e-01 8.315662e-01 182 184 184
2.050000e+02 9.600000e+01 1.127462e+01 -3.548600e-01 -4.298630e-01 8.302362e-01 182 184 186
2.060000e+02 9.600000e+01 1.167467e+01 -3.418107e-01 -4.291703e-01 8.360492e-01 182 184 186
2.070000e+02 9.600000e+01 1.206137e+01 -3.333339e-01 -4.334093e-01 8.372842e-01 184 185 187
2.080000e+02 9.600000e+01 1.243720e+01 -3.316448e-01 -4.285228e-01 8.404641e-01 184 186 188
2.090000e+02 9.600000e+01 1.280574e+01 -3.238507e-01 -4.251505e-01 8.452028e-01 184 186 187
2.100000e+02 9.600000e+01 1.317034e+01 -3.144655e-01 -4.279306e-01 8.473410e-01 184 186 186
2.110000e+02 9.600000e+01 1.352931e+01 -3.097922e-01 -4.294695e-01 8.482834e-01 184 185 187
2.120000e+02 9.600000e+01 1.388175e+01 -2.949653e-01 -4.342993e-01 8.511049e-01 185 186 188
2.130000e+02 9.600000e+01 1.421876e+01 -2.948027e-01 -4.221810e-01 8.572366e-01 187 187 190
2.140000e+02 9.600000e+01 1.454605e+01 -2.904798e-01 -4.284463e-01 8.556023e-01 187 187 189
2.150000e+02 9.600000e+01 1.486116e+01 -2.844505e-01 -4.407946e-01 8.513448e-01 186 186 188
2.160000e+02 9.600000e+01 1.516280e+01 -2.908679e-01 -4.720147e-01 8.322247e-01 181 182 184
2.170000e+02 9.600000e+01 1.549665e+01 -3.204689e-01 -4.866405e-01 8.126997e-01 170 172 175
2.180000e+02 9.600000e+01 1.588501e+01 -3.233867e-01 -4.851507e-01 8.124345e-01 169 171 173
2.190000e+02 9.600000e+01 1.626597e+01 -2.996680e-01 -4.678854e-01 8.314339e-01 176 180 180
2.200000e+02 9.600000e+01 1.660418e+01 -2.644978e-01 -4.537892e-01 8.509502e-01 183 184 186
2.210000e+02 9.600000e+01 1.688353e+01 -2.393377e-01 -4.630632e-01 8.533991e-01 187 186 189
2.220000e+02 9.600000e+01 1.713717e+01 -2.345788e-01 -4.668090e-01 8.526794e-01 187 186 190
2.230000e+02 9.600000e+01 1.739109e+01 -2.235603e-01 -4.698543e-01 8.539659e-01 186 187 190
2.240000e+02 9.600000e+01 1.763527e+01 -2.094476e-01 -4.656670e-01 8.598174e-01 186 187 190
2.250000e+02 9.600000e+01 1.786574e+01 -2.041841e-01 -4.503114e-01 8.692114e-01 186 188 190
2.260000e+02 9.600000e+01 1.808599e+01 -1.961109e-01 -4.496174e-01 8.714268e-01 187 188 191
2.270000e+02 9.600000e+01 1.829281e+01 -1.861052e-01 -4.538382e-01 8.714331e-01 187 188 191
2.280000e+02 9.600000e+01 1.848964e+01 -1.676303e-01 -4.635824e-01 8.700526e-01 187 189 191
2.290000e+02 9.600000e+01 1.867761e+01 -1.655626e-01 -4.574794e-01 8.736714e-01 187 189 192
2.300000e+02 9.600000e+01 1.886078e+01 -1.505898e-01 -4.650944e-01 8.723588e-01 189 189 192
2.310000e+02 9.600000e+01 1.902847e+01 -1.349202e-01 -4.661960e-01 8.743328e-01 190 188 192
