ply
format ascii 1.0
element vertex 528
property float x
property float y
property float z
property float nx
property float ny
property float nz
property uchar blue
property uchar green
property uchar red
end_header
3.200000e+02 2.820000e+02 5.023810e+00 7.153753e-01 -3.756791e-01 5.891548e-01 122 123 121
3.210000e+02 2.820000e+02 3.782490e+00 7.682254e-01 -3.354453e-01 5.452579e-01 123 122 121
3.220000e+02 2.820000e+02 2.383802e+00 8.331852e-01 -2.760087e-01 4.791886e-01 126 123 121
3.230000e+02 2.820000e+02 7.871445e-01 9.020013e-01 -9.005740e-02 4.222360e-01 57 54 51
1.600000e+02 2.830000e+02 2.364276e+01 -8.756262e-01 2.711018e-01 3.997282e-01 17 16 16
1.610000e+02 2.830000e+02 2.588150e+01 -6.625946e-01 5.466038e-01 5.120476e-01 88 84 80
1.620000e+02 2.830000e+02 2.729464e+01 -4.049906e-01 6.890104e-01 6.010385e-01 121 119 117
1.630000e+02 2.830000e+02 2.804313e+01 -1.899092e-01 7.263403e-01 6.605787e-01 124 121 123
1.640000e+02 2.830000e+02 2.835981e+01 9.846399e-02 7.031558e-01 7.041851e-01 114 111 113
1.650000e+02 2.830000e+02 2.828204e+01 5.708241e-01 5.368613e-01 6.212405e-01 101 101 101
1.660000e+02 2.830000e+02 2.763796e+01 7.075350e-01 4.114893e-01 5.745179e-01 102 100 101
1.670000e+02 2.830000e+02 2.677144e+01 7.274875e-01 4.207718e-01 5.419530e-01 122 122 121
1.680000e+02 2.830000e+02 2.590345e+01 6.709556e-01 5.390397e-01 5.091707e-01 147 146 146
1.690000e+02 2.830000e+02 2.500253e+01 5.574897e-01 6.426355e-01 5.255710e-01 157 155 155
1.700000e+02 2.830000e+02 2.414707e+01 5.283972e-01 6.594596e-01 5.347050e-01 167 161 163
1.710000e+02 2.830000e+02 2.327486e+01 4.347876e-01 7.111025e-01 5.525332e-01 185 180 182
1.720000e+02 2.830000e+02 2.248741e+01 3.647563e-01 7.393999e-01 5.658981e-01 200 195 196
1.730000e+02 2.830000e+02 2.180254e+01 3.631095e-01 7.396710e-01 5.666024e-01 199 195 195
1.740000e+02 2.830000e+02 2.112073e+01 3.551345e-01 7.150404e-01 6.021601e-01 185 179 180
1.750000e+02 2.830000e+02 2.049585e+01 3.251954e-01 6.508638e-01 6.860206e-01 157 149 153
1.760000e+02 2.830000e+02 1.999142e+01 3.062118e-01 6.254226e-01 7.176914e-01 141 134 137
1.770000e+02 2.830000e+02 1.953816e+01 2.428487e-01 6.488769e-01 7.210987e-01 135 131 130
1.780000e+02 2.830000e+02 1.917581e+01 2.660710e-01 6.683072e-01 6.946738e-01 127 119 116
1.790000e+02 2.830000e+02 1.878221e+01 3.778552e-01 6.693126e-01 6.397234e-01 44 39 39
1.980000e+02 2.830000e+02 5.973575e+01 -8.340454e-01 3.383187e-01 4.357851e-01 4 4 5
1.990000e+02 2.830000e+02 6.136971e+01 -8.446476e-01 2.100185e-01 4.924050e-01 46 43 43
2.000000e+02 2.830000e+02 6.296022e+01 -6.907841e-01 3.049810e-01 6.555943e-01 89 88 86
2.010000e+02 2.830000e+02 6.398304e+01 -5.132048e-01 2.716628e-01 8.141376e-01 97 97 97
2.020000e+02 2.830000e+02 6.459063e+01 -3.483278e-01 1.917318e-01 9.175547e-01 99 97 96
2.030000e+02 2.830000e+02 6.496418e+01 -2.691718e-01 1.570971e-01 9.501931e-01 99 97 96
2.040000e+02 2.830000e+02 6.524388e+01 -1.705161e-01 1.570992e-01 9.727508e-01 97 97 96
2.050000e+02 2.830000e+02 6.542526e+01 -1.109980e-01 1.698353e-01 9.792014e-01 98 97 95
2.060000e+02 2.830000e+02 6.552936e+01 -1.651130e-02 1.576140e-01 9.873628e-01 99 97 97
2.070000e+02 2.830000e+02 6.554263e+01 7.429038e-02 1.536845e-01 9.853233e-01 99 97 98
2.080000e+02 2.830000e+02 6.545380e+01 1.582143e-01 1.233897e-01 9.796649e-01 100 97 98
2.090000e+02 2.830000e+02 6.526871e+01 2.536978e-01 1.050320e-01 9.615642e-01 100 98 99
2.100000e+02 2.830000e+02 6.497145e+01 3.541121e-01 2.449803e-02 9.348820e-01 101 99 100
2.110000e+02 2.830000e+02 6.454312e+01 4.197215e-01 -6.181290e-02 9.055457e-01 101 99 101
2.120000e+02 2.830000e+02 6.403486e+01 5.788970e-01 -1.791936e-01 7.954671e-01 100 100 103
2.130000e+02 2.830000e+02 6.328030e+01 6.671362e-01 -2.332685e-01 7.074709e-01 105 107 107
2.140000e+02 2.830000e+02 6.235338e+01 7.083053e-01 -2.684572e-01 6.528662e-01 109 110 109
2.150000e+02 2.830000e+02 6.128895e+01 7.664490e-01 -2.807817e-01 5.776829e-01 111 112 112
2.160000e+02 2.830000e+02 5.999106e+01 8.287974e-01 -2.750040e-01 4.873066e-01 117 117 116
2.170000e+02 2.830000e+02 5.835417e+01 8.667887e-01 -2.593639e-01 4.259198e-01 116 115 112
2.180000e+02 2.830000e+02 5.652630e+01 8.714261e-01 -1.613397e-01 4.632343e-01 42 40 41
2.960000e+02 2.830000e+02 -3.453006e+01 -9.464736e-01 -1.658065e-01 2.769401e-01 14 14 15
2.970000e+02 2.830000e+02 -3.090541e+01 -9.332515e-01 -3.972244e-02 3.570208e-01 102 98 100
2.980000e+02 2.830000e+02 -2.819620e+01 -9.104178e-01 4.419279e-02 4.113228e-01 142 137 138
2.990000e+02 2.830000e+02 -2.594748e+01 -9.179392e-01 -4.035058e-02 3.946636e-01 147 143 142
3.000000e+02 2.830000e+02 -2.366988e+01 -8.780360e-01 -4.168779e-01 2.350863e-01 142 140 141
3.010000e+02 2.830000e+02 -2.022357e+01 -7.541395e-01 -6.480002e-01 1.066269e-01 160 159 159
3.020000e+02 2.830000e+02 -1.467423e+01 -7.034592e-01 -7.057169e-01 8.431338e-02 162 161 160
3.030000e+02 2.830000e+02 -8.810980e+00 -6.143080e-01 -7.865915e-01 6.244660e-02 160 156 158
3.040000e+02 2.830000e+02 -4.157126e+00 -5.756897e-01 -8.157198e-01 5.641334e-02 154 153 152
3.050000e+02 2.830000e+02 -2.801000e-02 -6.080710e-01 -7.894852e-01 8.344318e-02 136 132 128
3.060000e+02 2.830000e+02 3.555543e+00 -8.776350e-01 -2.150637e-01 4.283741e-01 97 96 95
3.070000e+02 2.830000e+02 5.506102e+00 -7.662916e-01 -7.347883e-02 6.382774e-01 106 104 104
3.080000e+02 2.830000e+02 6.628700e+00 -6.136052e-01 -2.146614e-01 7.598744e-01 107 105 104
3.090000e+02 2.830000e+02 7.354155e+00 -4.616430e-01 -3.478138e-01 8.160339e-01 109 108 107
3.100000e+02 2.830000e+02 7.870887e+00 -3.270300e-01 -3.727628e-01 8.683889e-01 111 108 108
3.110000e+02 2.830000e+02 8.208762e+00 -1.936402e-01 -3.962362e-01 8.974967e-01 110 108 107
3.120000e+02 2.830000e+02 8.400193e+00 -8.941046e-02 -4.434910e-01 8.918080e-01 111 109 108
3.130000e+02 2.830000e+02 8.517650e+00 -4.271343e-02 -4.546006e-01 8.896707e-01 112 111 110
3.140000e+02 2.830000e+02 8.598520e+00 -4.409071e-02 -2.392213e-01 9.699635e-01 116 113 114
3.150000e+02 2.830000e+02 8.602466e+00 2.024243e-01 -1.959481e-01 9.594940e-01 116 114 114
3.160000e+02 2.830000e+02 8.359538e+00 3.416744e-01 -3.631344e-01 8.668287e-01 115 113 113
3.170000e+02 2.830000e+02 7.937157e+00 4.307071e-01 -4.402351e-01 7.878353e-01 115 114 114
3.180000e+02 2.830000e+02 7.349857e+00 5.668283e-01 -4.337602e-01 7.003983e-01 120 118 117
3.190000e+02 2.830000e+02 6.503063e+00 6.053508e-01 -4.123256e-01 6.808363e-01 120 117 117
3.200000e+02 2.830000e+02 5.579984e+00 7.207825e-01 -3.442191e-01 6.016525e-01 122 120 120
3.210000e+02 2.830000e+02 4.340736e+00 7.624015e-01 -3.087450e-01 5.687007e-01 122 122 120
3.220000e+02 2.830000e+02 2.942907e+00 8.291050e-01 -3.018341e-01 4.706178e-01 126 125 123
3.230000e+02 2.830000e+02 1.183438e+00 9.023366e-01 -1.227910e-01 4.131719e-01 73 68 64
1.600000e+02 2.840000e+02 2.176962e+01 -8.890858e-01 2.235866e-01 3.994189e-01 11 11 11
1.610000e+02 2.840000e+02 2.407949e+01 -7.607858e-01 4.379652e-01 4.789483e-01 74 71 68
1.620000e+02 2.840000e+02 2.566399e+01 -4.630968e-01 6.674387e-01 5.831525e-01 119 115 113
1.630000e+02 2.840000e+02 2.645375e+01 -2.621890e-01 7.178444e-01 6.449468e-01 126 122 123
1.640000e+02 2.840000e+02 2.683447e+01 -3.167195e-02 7.182152e-01 6.950998e-01 125 120 122
1.650000e+02 2.840000e+02 2.683821e+01 3.317296e-01 6.463935e-01 6.871179e-01 110 108 111
1.660000e+02 2.840000e+02 2.640216e+01 6.705922e-01 4.343329e-01 6.013827e-01 104 102 103
1.670000e+02 2.840000e+02 2.551108e+01 6.574956e-01 4.349170e-01 6.152615e-01 114 112 113
1.680000e+02 2.840000e+02 2.473134e+01 5.530703e-01 5.983168e-01 5.797674e-01 136 134 135
1.690000e+02 2.840000e+02 2.403607e+01 5.056095e-01 6.715210e-01 5.416813e-01 157 154 156
1.700000e+02 2.840000e+02 2.329571e+01 4.657855e-01 6.960830e-01 5.463628e-01 171 168 171
1.710000e+02 2.840000e+02 2.251203e+01 3.754237e-01 7.374497e-01 5.614490e-01 194 189 191
1.720000e+02 2.840000e+02 2.181227e+01 3.539434e-01 7.454506e-01 5.648252e-01 201 196 198
1.730000e+02 2.840000e+02 2.114577e+01 3.606519e-01 7.408909e-01 5.665782e-01 201 195 196
1.740000e+02 2.840000e+02 2.048040e+01 3.557890e-01 7.222728e-01 5.930735e-01 188 182 183
1.750000e+02 2.840000e+02 1.986165e+01 3.286022e-01 6.724595e-01 6.631884e-01 156 151 156
1.760000e+02 2.840000e+02 1.934484e+01 3.142901e-01 6.449850e-01 6.965746e-01 140 136 136
1.770000e+02 2.840000e+02 1.887427e+01 2.701847e-01 6.649786e-01 6.962784e-01 137 129 129
1.780000e+02 2.840000e+02 1.846732e+01 2.658008e-01 6.655458e-01 6.974229e-01 126 117 116
1.790000e+02 2.840000e+02 1.808420e+01 3.883851e-01 6.541346e-01 6.490492e-01 44 39 38
1.980000e+02 2.840000e+02 5.919604e+01 -7.075510e-01 5.154329e-01 4.834257e-01 2 2 3
1.990000e+02 2.840000e+02 6.052102e+01 -9.005195e-01 9.314279e-02 4.247223e-01 42 38 38
2.000000e+02 2.840000e+02 6.235533e+01 -7.814328e-01 2.635724e-01 5.655904e-01 86 84 83
2.010000e+02 2.840000e+02 6.359573e+01 -6.095993e-01 2.603424e-01 7.487393e-01 100 98 97
2.020000e+02 2.840000e+02 6.437150e+01 -4.218015e-01 1.662405e-01 8.913179e-01 101 99 99
2.030000e+02 2.840000e+02 6.482980e+01 -2.878300e-01 1.250376e-01 9.494838e-01 102 98 98
2.040000e+02 2.840000e+02 6.512099e+01 -1.950888e-01 9.689420e-02 9.759876e-01 100 98 98
2.050000e+02 2.840000e+02 6.530813e+01 -1.132492e-01 1.036787e-01 9.881424e-01 101 99 97
2.060000e+02 2.840000e+02 6.540934e+01 -3.734056e-02 8.200786e-02 9.959319e-01 103 99 99
2.070000e+02 2.840000e+02 6.543084e+01 4.363557e-02 5.005842e-02 9.977926e-01 104 100 100
2.080000e+02 2.840000e+02 6.537122e+01 1.253762e-01 -1.247558e-02 9.920308e-01 105 100 101
2.090000e+02 2.840000e+02 6.522760e+01 2.514122e-01 -5.739970e-02 9.661766e-01 106 103 103
2.100000e+02 2.840000e+02 6.496981e+01 3.294995e-01 -1.260313e-01 9.357063e-01 108 106 106
2.110000e+02 2.840000e+02 6.462832e+01 4.086483e-01 -1.299643e-01 9.033913e-01 105 104 105
2.120000e+02 2.840000e+02 6.418723e+01 5.548240e-01 -1.710314e-01 8.141981e-01 100 101 102
2.130000e+02 2.840000e+02 6.351753e+01 6.410330e-01 -1.846181e-01 7.449784e-01 103 105 105
2.140000e+02 2.840000e+02 6.266313e+01 6.911305e-01 -2.007441e-01 6.942913e-01 105 106 106
2.150000e+02 2.840000e+02 6.166063e+01 7.556866e-01 -2.359166e-01 6.109674e-01 109 110 109
2.160000e+02 2.840000e+02 6.042768e+01 8.130778e-01 -2.559346e-01 5.228785e-01 111 113 113
2.170000e+02 2.840000e+02 5.889761e+01 8.572209e-01 -2.386506e-01 4.563093e-01 117 117 114
2.180000e+02 2.840000e+02 5.704979e+01 8.800907e-01 -1.486109e-01 4.509491e-01 59 56 55
2.960000e+02 2.840000e+02 -3.483226e+01 -9.416548e-01 -2.548312e-01 2.198801e-01 9 10 10
2.970000e+02 2.840000e+02 -3.081076e+01 -9.361800e-01 -7.179905e-02 3.441102e-01 93 92 92
2.980000e+02 2.840000e+02 -2.807461e+01 -9.160089e-01 2.124256e-02 4.005951e-01 144 139 139
2.990000e+02 2.840000e+02 -2.575769e+01 -9.165172e-01 -2.156395e-02 3.994135e-01 148 143 141
3.000000e+02 2.840000e+02 -2.348052e+01 -8.993270e-01 -3.566313e-01 2.530317e-01 145 142 141
3.010000e+02 2.840000e+02 -2.013600e+01 -7.547870e-01 -6.475842e-01 1.045527e-01 163 162 161
3.020000e+02 2.840000e+02 -1.436649e+01 -6.875392e-01 -7.221130e-01 7.643730e-02 171 167 167
3.030000e+02 2.840000e+02 -8.373240e+00 -6.090484e-01 -7.909369e-01 5.898173e-02 166 163 162
3.040000e+02 2.840000e+02 -3.172350e+00 -5.618116e-01 -8.257143e-01 5.063160e-02 160 157 154
3.050000e+02 2.840000e+02 5.464168e-01 -5.682227e-01 -8.201370e-01 6.706928e-02 143 139 135
3.060000e+02 2.840000e+02 3.787392e+00 -8.773904e-01 -2.821415e-01 3.880493e-01 104 103 102
3.070000e+02 2.840000e+02 5.837568e+00 -7.840617e-01 -1.436931e-01 6.038208e-01 108 108 107
3.080000e+02 2.840000e+02 7.043370e+00 -6.399291e-01 -2.711456e-01 7.190068e-01 108 108 106
3.090000e+02 2.840000e+02 7.866117e+00 -4.536070e-01 -3.743321e-01 8.087745e-01 107 108 106
3.100000e+02 2.840000e+02 8.395034e+00 -2.964797e-01 -3.678672e-01 8.813476e-01 109 108 108
3.110000e+02 2.840000e+02 8.711218e+00 -1.787000e-01 -3.624625e-01 9.147061e-01 110 107 106
3.120000e+02 2.840000e+02 8.888136e+00 -1.708908e-01 -4.123726e-01 8.948437e-01 110 108 107
3.130000e+02 2.840000e+02 9.040680e+00 7.717815e-03 -4.445171e-01 8.957371e-01 111 109 109
3.140000e+02 2.840000e+02 9.001192e+00 -3.342702e-02 -2.888825e-01 9.567808e-01 113 111 111
3.150000e+02 2.840000e+02 8.974626e+00 2.181944e-01 -3.945552e-01 8.925903e-01 114 113 113
3.160000e+02 2.840000e+02 8.754195e+00 3.171189e-01 -4.428280e-01 8.386530e-01 114 113 112
3.170000e+02 2.840000e+02 8.395779e+00 4.278945e-01 -4.341204e-01 7.927457e-01 115 114 113
3.180000e+02 2.840000e+02 7.842537e+00 5.678128e-01 -4.117415e-01 7.127815e-01 118 117 117
3.190000e+02 2.840000e+02 7.027912e+00 6.263268e-01 -3.846927e-01 6.780312e-01 119 117 117
3.200000e+02 2.840000e+02 6.071739e+00 7.201404e-01 -3.331798e-01 6.085960e-01 121 120 119
3.210000e+02 2.840000e+02 4.842336e+00 7.601186e-01 -3.050061e-01 5.737517e-01 123 123 121
3.220000e+02 2.840000e+02 3.480922e+00 8.408536e-01 -2.533118e-01 4.783287e-01 129 125 125
3.230000e+02 2.840000e+02 1.674707e+00 9.042089e-01 -1.290977e-01 4.071119e-01 86 81 76
1.600000e+02 2.850000e+02 1.992916e+01 -9.367304e-01 6.380278e-02 3.441879e-01 7 7 7
1.610000e+02 2.850000e+02 2.238782e+01 -8.038049e-01 3.769642e-01 4.602127e-01 69 65 64
1.620000e+02 2.850000e+02 2.400673e+01 -5.192871e-01 6.239135e-01 5.840145e-01 119 115 111
1.630000e+02 2.850000e+02 2.484910e+01 -3.089173e-01 6.954867e-01 6.487437e-01 122 121 121
1.640000e+02 2.850000e+02 2.528016e+01 -8.412484e-02 7.143982e-01 6.946641e-01 124 123 122
1.650000e+02 2.850000e+02 2.533410e+01 1.605924e-01 6.890930e-01 7.066547e-01 125 123 123
1.660000e+02 2.850000e+02 2.504277e+01 4.468361e-01 5.939691e-01 6.689830e-01 115 114 114
1.670000e+02 2.850000e+02 2.435380e+01 4.261796e-01 6.005869e-01 6.765104e-01 121 120 121
1.680000e+02 2.850000e+02 2.367853e+01 3.227979e-01 6.920447e-01 6.456591e-01 139 137 140
1.690000e+02 2.850000e+02 2.314092e+01 3.557268e-01 7.303445e-01 5.831426e-01 161 161 163
1.700000e+02 2.850000e+02 2.250842e+01 3.613608e-01 7.438948e-01 5.621733e-01 185 180 182
1.710000e+02 2.850000e+02 2.180247e+01 3.391958e-01 7.530703e-01 5.637653e-01 199 192 194
1.720000e+02 2.850000e+02 2.113548e+01 3.539434e-01 7.454506e-01 5.648252e-01 202 196 198
1.730000e+02 2.850000e+02 2.047607e+01 3.650733e-01 7.397907e-01 5.651825e-01 203 198 199
1.740000e+02 2.850000e+02 1.981911e+01 3.624945e-01 7.270966e-01 5.830337e-01 191 184 186
1.750000e+02 2.850000e+02 1.919049e+01 3.337983e-01 6.812396e-01 6.515299e-01 160 154 158
1.760000e+02 2.850000e+02 1.865766e+01 3.220986e-01 6.426526e-01 6.951620e-01 140 136 136
1.770000e+02 2.850000e+02 1.817182e+01 2.912639e-01 6.399886e-01 7.110415e-01 135 129 127
1.780000e+02 2.850000e+02 1.774772e+01 2.431173e-01 6.221965e-01 7.441542e-01 125 117 116
1.790000e+02 2.850000e+02 1.741236e+01 3.600070e-01 6.018370e-01 7.128724e-01 53 47 47
1.980000e+02 2.850000e+02 5.846074e+01 -5.764647e-01 6.264787e-01 5.246074e-01 1 2 2
1.990000e+02 2.850000e+02 5.984060e+01 -8.734769e-01 1.653093e-01 4.579420e-01 37 33 34
2.000000e+02 2.850000e+02 6.168161e+01 -8.312806e-01 2.352545e-01 5.036147e-01 91 87 85
2.010000e+02 2.850000e+02 6.314242e+01 -7.210598e-01 1.970103e-01 6.642738e-01 95 95 96
2.020000e+02 2.850000e+02 6.416205e+01 -4.955551e-01 6.408721e-02 8.662089e-01 100 98 99
2.030000e+02 2.850000e+02 6.472791e+01 -3.146766e-01 1.467904e-02 9.490854e-01 102 100 99
2.040000e+02 2.850000e+02 6.506150e+01 -1.967981e-01 8.039540e-03 9.804111e-01 102 100 99
2.050000e+02 2.850000e+02 6.525947e+01 -1.090487e-01 1.672836e-03 9.940350e-01 104 101 99
2.060000e+02 2.850000e+02 6.536874e+01 -5.888971e-02 -1.217002e-02 9.981903e-01 104 102 101
2.070000e+02 2.850000e+02 6.542371e+01 -2.220679e-03 -5.592541e-02 9.984325e-01 106 102 101
2.080000e+02 2.850000e+02 6.542725e+01 1.028057e-01 -9.364276e-02 9.902838e-01 107 103 103
2.090000e+02 2.850000e+02 6.533389e+01 2.278970e-01 -1.172084e-01 9.666050e-01 109 105 106
2.100000e+02 2.850000e+02 6.512098e+01 3.232445e-01 -1.169004e-01 9.390672e-01 109 106 107
2.110000e+02 2.850000e+02 6.478936e+01 4.182618e-01 -1.002928e-01 9.027726e-01 105 104 105
2.120000e+02 2.850000e+02 6.432983e+01 5.218753e-01 -1.397647e-01 8.414939e-01 104 103 104
2.130000e+02 2.850000e+02 6.368990e+01 6.154746e-01 -1.630700e-01 7.711026e-01 106 107 106
2.140000e+02 2.850000e+02 6.287662e+01 6.737952e-01 -1.868680e-01 7.148989e-01 106 108 106
2.150000e+02 2.850000e+02 6.193149e+01 7.366689e-01 -2.008648e-01 6.457339e-01 108 109 108
2.160000e+02 2.850000e+02 6.078663e+01 7.996490e-01 -2.038067e-01 5.648224e-01 110 112 111
2.170000e+02 2.850000e+02 5.936551e+01 8.576487e-01 -1.757501e-01 4.832708e-01 117 117 116
2.180000e+02 2.850000e+02 5.759571e+01 8.974963e-01 -3.783267e-02 4.393963e-01 75 72 70
2.960000e+02 2.850000e+02 -3.484140e+01 -9.525934e-01 -1.974616e-01 2.314621e-01 5 5 6
2.970000e+02 2.850000e+02 -3.074215e+01 -9.395715e-01 -9.693989e-02 3.283414e-01 83 82 82
2.980000e+02 2.850000e+02 -2.790500e+01 -9.233085e-01 -2.974250e-02 3.829057e-01 143 141 141
2.990000e+02 2.850000e+02 -2.557023e+01 -9.186712e-01 -8.242017e-02 3.863292e-01 153 151 148
3.000000e+02 2.850000e+02 -2.327224e+01 -8.986905e-01 -3.621355e-01 2.474133e-01 153 150 149
3.010000e+02 2.850000e+02 -1.995025e+01 -7.678704e-01 -6.310538e-01 1.102097e-01 163 162 160
3.020000e+02 2.850000e+02 -1.443964e+01 -6.796256e-01 -7.297532e-01 7.462783e-02 169 168 167
3.030000e+02 2.850000e+02 -8.507456e+00 -6.074153e-01 -7.923337e-01 5.704324e-02 165 163 162
3.040000e+02 2.850000e+02 -3.169765e+00 -5.479140e-01 -8.352297e-01 4.670809e-02 160 157 156
3.050000e+02 2.850000e+02 4.627846e-02 -5.590867e-01 -8.262123e-01 6.924757e-02 145 140 137
3.060000e+02 2.850000e+02 4.239788e+00 -8.697434e-01 -3.086315e-01 3.850883e-01 110 107 106
3.070000e+02 2.850000e+02 6.322898e+00 -7.839135e-01 -1.682066e-01 5.976505e-01 111 108 108
3.080000e+02 2.850000e+02 7.569999e+00 -6.353692e-01 -2.717719e-01 7.228043e-01 108 106 106
3.090000e+02 2.850000e+02 8.395012e+00 -4.448082e-01 -3.812374e-01 8.104343e-01 108 108 107
3.100000e+02 2.850000e+02 8.897860e+00 -2.458673e-01 -4.293615e-01 8.690213e-01 111 110 110
3.110000e+02 2.850000e+02 9.165855e+00 -1.555010e-01 -4.444390e-01 8.822094e-01 111 109 108
3.120000e+02 2.850000e+02 9.358834e+00 -1.879143e-01 -4.078290e-01 8.935120e-01 109 108 108
3.130000e+02 2.850000e+02 9.541348e+00 8.260861e-03 -4.264640e-01 9.044668e-01 110 109 109
3.140000e+02 2.850000e+02 9.497946e+00 -3.020386e-02 -2.938620e-01 9.553705e-01 111 109 108
3.150000e+02 2.850000e+02 9.516031e+00 2.434207e-01 -3.624020e-01 8.996728e-01 114 112 111
3.160000e+02 2.850000e+02 9.263793e+00 3.387989e-01 -4.182473e-01 8.427838e-01 113 113 111
3.170000e+02 2.850000e+02 8.880004e+00 4.608392e-01 -3.967671e-01 7.938533e-01 113 113 111
3.180000e+02 2.850000e+02 8.299264e+00 5.411554e-01 -3.735639e-01 7.533929e-01 115 113 113
3.190000e+02 2.850000e+02 7.526366e+00 6.292297e-01 -3.922380e-01 6.709839e-01 119 117 117
3.200000e+02 2.850000e+02 6.546524e+00 7.116070e-01 -3.568949e-01 6.051789e-01 122 121 120
3.210000e+02 2.850000e+02 5.318064e+00 7.638704e-01 -3.183442e-01 5.613902e-01 126 123 122
3.220000e+02 2.850000e+02 3.906128e+00 8.323539e-01 -2.676723e-01 4.853232e-01 128 126 125
3.230000e+02 2.850000e+02 2.125010e+00 8.921020e-01 -1.969470e-01 4.066520e-01 96 91 87
1.600000e+02 2.860000e+02 1.828201e+01 -9.466342e-01 -7.242807e-02 3.140667e-01 3 3 3
1.610000e+02 2.860000e+02 2.070755e+01 -8.425019e-01 3.090771e-01 4.412050e-01 55 53 50
1.620000e+02 2.860000e+02 2.239470e+01 -5.506814e-01 6.012494e-01 5.790071e-01 112 108 106
1.630000e+02 2.860000e+02 2.329837e+01 -3.250973e-01 6.887699e-01 6.480029e-01 119 118 118
1.640000e+02 2.860000e+02 2.375785e+01 -8.257779e-02 7.117265e-01 6.975860e-01 121 120 120
1.650000e+02 2.860000e+02 2.382546e+01 1.070939e-01 6.929791e-01 7.129592e-01 124 124 126
1.660000e+02 2.860000e+02 2.358956e+01 2.671148e-01 6.522940e-01 7.093393e-01 129 129 131
1.670000e+02 2.860000e+02 2.311821e+01 2.547982e-01 6.721015e-01 6.952392e-01 144 142 144
1.680000e+02 2.860000e+02 2.257783e+01 1.468716e-01 7.220450e-01 6.760767e-01 160 156 157
1.690000e+02 2.860000e+02 2.216211e+01 2.164540e-01 7.390267e-01 6.379555e-01 174 172 171
1.700000e+02 2.860000e+02 2.168390e+01 3.151334e-01 7.475304e-01 5.847130e-01 198 194 192
1.710000e+02 2.860000e+02 2.106816e+01 3.499555e-01 7.447950e-01 5.681652e-01 208 203 203
1.720000e+02 2.860000e+02 2.042638e+01 3.632528e-01 7.392736e-01 5.670290e-01 208 203 204
1.730000e+02 2.860000e+02 1.978654e+01 3.745164e-01 7.339187e-01 5.666575e-01 209 203 206
1.740000e+02 2.860000e+02 1.914442e+01 3.846413e-01 7.156668e-01 5.829856e-01 198 190 193
1.750000e+02 2.860000e+02 1.851510e+01 3.596134e-01 6.660666e-01 6.534779e-01 164 159 161
1.760000e+02 2.860000e+02 1.797739e+01 3.441568e-01 6.147114e-01 7.097084e-01 137 134 134
1.770000e+02 2.860000e+02 1.750694e+01 3.103037e-01 6.098640e-01 7.292308e-01 132 129 126
1.780000e+02 2.860000e+02 1.711321e+01 2.272700e-01 6.229903e-01 7.484861e-01 128 120 118
1.790000e+02 2.860000e+02 1.683720e+01 3.473953e-01 6.481865e-01 6.776214e-01 63 57 55
1.990000e+02 2.860000e+02 5.951814e+01 -8.342060e-01 2.194462e-01 5.059088e-01 24 24 24
2.000000e+02 2.860000e+02 6.108744e+01 -8.465663e-01 1.777243e-01 5.017366e-01 96 93 90
2.010000e+02 2.860000e+02 6.266843e+01 -8.234061e-01 1.299735e-01 5.523669e-01 102 99 98
2.020000e+02 2.860000e+02 6.403129e+01 -5.843898e-01 5.188086e-02 8.098129e-01 97 96 96
2.030000e+02 2.860000e+02 6.473503e+01 -3.501262e-01 1.859589e-02 9.365179e-01 101 99 98
2.040000e+02 2.860000e+02 6.509739e+01 -2.152621e-01 -5.833688e-03 9.765389e-01 102 99 98
2.050000e+02 2.860000e+02 6.531112e+01 -1.132925e-01 -1.791238e-02 9.934002e-01 104 100 99
2.060000e+02 2.860000e+02 6.542608e+01 -7.919541e-02 -4.806348e-02 9.956997e-01 104 101 100
2.070000e+02 2.860000e+02 6.551738e+01 -3.629335e-02 -3.519539e-02 9.987212e-01 104 101 100
2.080000e+02 2.860000e+02 6.555630e+01 7.175094e-02 -5.019405e-02 9.961588e-01 105 101 101
2.090000e+02 2.860000e+02 6.549011e+01 2.110218e-01 -6.137229e-02 9.755528e-01 106 102 103
2.100000e+02 2.860000e+02 6.527343e+01 3.193089e-01 -8.747109e-02 9.436051e-01 106 104 104
2.110000e+02 2.860000e+02 6.492751e+01 4.246880e-01 -1.293228e-01 8.960556e-01 106 104 105
2.120000e+02 2.860000e+02 6.445687e+01 5.237687e-01 -1.628708e-01 8.361456e-01 108 107 106
2.130000e+02 2.860000e+02 6.382251e+01 5.912928e-01 -1.855772e-01 7.848146e-01 109 108 108
2.140000e+02 2.860000e+02 6.305173e+01 6.571108e-01 -2.131043e-01 7.230436e-01 110 109 109
2.150000e+02 2.860000e+02 6.214018e+01 7.225701e-01 -2.064364e-01 6.597548e-01 112 111 111
2.160000e+02 2.860000e+02 6.103569e+01 7.837395e-01 -2.028873e-01 5.870172e-01 116 116 116
2.170000e+02 2.860000e+02 5.966787e+01 8.477937e-01 -1.569280e-01 5.065761e-01 121 121 119
2.180000e+02 2.860000e+02 5.791561e+01 8.955745e-01 -1.126789e-01 4.304066e-01 94 92 91
2.960000e+02 2.860000e+02 -3.502612e+01 -9.402573e-01 -2.691916e-01 2.084518e-01 4 5 5
2.970000e+02 2.860000e+02 -3.058439e+01 -9.421809e-01 -1.284316e-01 3.095164e-01 80 78 78
2.980000e+02 2.860000e+02 -2.752503e+01 -9.205714e-01 -5.141405e-03 3.905405e-01 135 132 131
2.990000e+02 2.860000e+02 -2.520947e+01 -9.197627e-01 -6.834985e-02 3.864775e-01 144 142 142
3.000000e+02 2.860000e+02 -2.294949e+01 -8.955734e-01 -3.672577e-01 2.511376e-01 148 147 146
3.010000e+02 2.860000e+02 -1.973886e+01 -7.843973e-01 -6.088661e-01 1.183336e-01 160 156 155
3.020000e+02 2.860000e+02 -1.465081e+01 -6.895512e-01 -7.196957e-01 8.097637e-02 161 158 157
3.030000e+02 2.860000e+02 -9.220636e+00 -6.182452e-01 -7.832533e-01 6.547624e-02 157 154 155
3.040000e+02 2.860000e+02 -3.854829e+00 -5.516814e-01 -8.326214e-01 4.888043e-02 156 153 151
3.050000e+02 2.860000e+02 4.372172e-02 -5.773617e-01 -8.127721e-01 7.781410e-02 141 136 135
3.060000e+02 2.860000e+02 4.812305e+00 -8.716299e-01 -2.804847e-01 4.019820e-01 110 107 107
3.070000e+02 2.860000e+02 6.848553e+00 -7.784467e-01 -1.832710e-01 6.003603e-01 110 108 109
3.080000e+02 2.860000e+02 8.103833e+00 -6.323688e-01 -2.689805e-01 7.264704e-01 108 106 106
3.090000e+02 2.860000e+02 8.934241e+00 -4.481094e-01 -3.897175e-01 8.045609e-01 108 107 105
3.100000e+02 2.860000e+02 9.454732e+00 -2.224039e-01 -4.604460e-01 8.593753e-01 111 110 109
3.110000e+02 2.860000e+02 9.701186e+00 -1.489234e-01 -4.537722e-01 8.785856e-01 111 109 109
3.120000e+02 2.860000e+02 9.869258e+00 -1.547152e-01 -3.933244e-01 9.062887e-01 110 107 108
3.130000e+02 2.860000e+02 1.002432e+01 2.606978e-02 -4.065564e-01 9.132537e-01 110 108 107
3.140000e+02 2.860000e+02 9.983750e+00 1.123373e-02 -2.985778e-01 9.543192e-01 109 106 106
3.150000e+02 2.860000e+02 9.983076e+00 2.145029e-01 -3.181678e-01 9.234489e-01 110 107 107
3.160000e+02 2.860000e+02 9.744489e+00 3.339784e-01 -4.093638e-01 8.490463e-01 110 110 109
3.170000e+02 2.860000e+02 9.337345e+00 4.387313e-01 -4.430267e-01 7.818198e-01 115 114 114
3.180000e+02 2.860000e+02 8.741212e+00 4.994882e-01 -4.407851e-01 7.458016e-01 116 115 116
3.190000e+02 2.860000e+02 8.013793e+00 5.875561e-01 -4.452431e-01 6.756748e-01 120 119 120
3.200000e+02 2.860000e+02 7.063644e+00 6.845655e-01 -4.289987e-01 5.893472e-01 126 126 125
3.210000e+02 2.860000e+02 5.816906e+00 7.270100e-01 -4.499330e-01 5.186683e-01 130 131 128
3.220000e+02 2.860000e+02 4.353760e+00 7.615727e-01 -4.565842e-01 4.599325e-01 133 133 129
3.230000e+02 2.860000e+02 2.648727e+00 8.191037e-01 -4.000421e-01 4.111392e-01 113 108 104
1.600000e+02 2.870000e+02 1.734558e+01 -9.034999e-01 -3.782745e-01 2.014852e-01 2 2 2
1.610000e+02 2.870000e+02 1.899422e+01 -8.655695e-01 2.665439e-01 4.239620e-01 41 39 38
1.620000e+02 2.870000e+02 2.072142e+01 -6.204974e-01 5.547702e-01 5.542679e-01 107 102 100
1.630000e+02 2.870000e+02 2.176004e+01 -3.496266e-01 6.930047e-01 6.304805e-01 124 120 121
1.640000e+02 2.870000e+02 2.226216e+01 -1.230646e-01 7.278040e-01 6.746529e-01 120 118 121
1.650000e+02 2.870000e+02 2.236648e+01 3.840465e-02 7.216301e-01 6.912127e-01 125 122 124
1.660000e+02 2.870000e+02 2.217533e+01 6.781298e-02 6.964050e-01 7.144379e-01 135 131 134
1.670000e+02 2.870000e+02 2.189740e+01 1.314022e-01 7.088873e-01 6.929735e-01 151 147 148
1.680000e+02 2.870000e+02 2.149812e+01 8.926045e-02 7.300253e-01 6.775659e-01 158 154 156
1.690000e+02 2.870000e+02 2.114831e+01 1.386462e-01 7.371943e-01 6.613031e-01 167 164 164
1.700000e+02 2.870000e+02 2.077787e+01 2.483287e-01 7.499816e-01 6.130745e-01 185 182 181
1.710000e+02 2.870000e+02 2.029402e+01 3.303282e-01 7.507403e-01 5.720772e-01 204 199 198
1.720000e+02 2.870000e+02 1.970182e+01 3.551492e-01 7.438004e-01 5.662421e-01 205 199 199
1.730000e+02 2.870000e+02 1.908953e+01 3.649930e-01 7.400561e-01 5.648868e-01 204 201 202
1.740000e+02 2.870000e+02 1.847664e+01 3.669675e-01 7.301266e-01 5.764113e-01 197 192 194
1.750000e+02 2.870000e+02 1.787547e+01 3.549320e-01 6.855602e-01 6.356340e-01 166 161 163
1.760000e+02 2.870000e+02 1.734175e+01 3.357959e-01 6.335379e-01 6.970444e-01 139 137 136
1.770000e+02 2.870000e+02 1.687614e+01 3.075531e-01 6.184156e-01 7.231689e-01 131 129 128
1.780000e+02 2.870000e+02 1.648271e+01 2.274352e-01 6.260610e-01 7.458692e-01 129 122 119
1.790000e+02 2.870000e+02 1.621215e+01 3.038943e-01 6.768706e-01 6.704435e-01 69 63 60
1.990000e+02 2.870000e+02 5.919557e+01 -8.328780e-01 1.707033e-01 5.264738e-01 12 12 13
2.000000e+02 2.870000e+02 6.063056e+01 -8.506023e-01 1.076889e-01 5.146638e-01 86 84 82
2.010000e+02 2.870000e+02 6.221670e+01 -8.680691e-01 5.045812e-02 4.938725e-01 108 107 104
2.020000e+02 2.870000e+02 6.386068e+01 -6.820657e-01 8.726778e-02 7.260652e-01 99 97 96
2.030000e+02 2.870000e+02 6.473650e+01 -3.838771e-01 4.705266e-02 9.221846e-01 99 97 96
2.040000e+02 2.870000e+02 6.514395e+01 -2.248525e-01 1.794244e-02 9.742276e-01 100 98 98
2.050000e+02 2.870000e+02 6.537515e+01 -1.221772e-01 -1.068080e-02 9.924508e-01 102 99 99
2.060000e+02 2.870000e+02 6.550888e+01 -8.059859e-02 -1.708357e-02 9.966002e-01 103 99 100
2.070000e+02 2.870000e+02 6.559935e+01 -3.567111e-02 3.711992e-03 9.993567e-01 102 99 99
2.080000e+02 2.870000e+02 6.563751e+01 3.962645e-02 -1.901228e-02 9.990337e-01 102 99 99
2.090000e+02 2.870000e+02 6.559381e+01 1.731094e-01 -6.574061e-03 9.848807e-01 102 100 102
2.100000e+02 2.870000e+02 6.540096e+01 2.840804e-01 -5.994174e-02 9.569249e-01 104 102 103
2.110000e+02 2.870000e+02 6.508763e+01 4.047334e-01 -1.369006e-01 9.041289e-01 108 105 105
2.120000e+02 2.870000e+02 6.462385e+01 5.170109e-01 -2.160192e-01 8.282725e-01 111 109 108
2.130000e+02 2.870000e+02 6.399120e+01 5.739050e-01 -2.471726e-01 7.807296e-01 113 111 110
2.140000e+02 2.870000e+02 6.324440e+01 6.220973e-01 -2.534797e-01 7.407719e-01 113 113 112
2.150000e+02 2.870000e+02 6.236098e+01 6.822257e-01 -3.059855e-01 6.640339e-01 117 115 115
2.160000e+02 2.870000e+02 6.129882e+01 7.522101e-01 -3.145076e-01 5.790207e-01 120 120 120
2.170000e+02 2.870000e+02 5.995661e+01 8.089471e-01 -2.959579e-01 5.079504e-01 125 123 123
2.180000e+02 2.870000e+02 5.831209e+01 8.632007e-01 -2.698973e-01 4.266615e-01 115 114 111
2.960000e+02 2.870000e+02 -3.494539e+01 -9.329485e-01 -3.034042e-01 1.937860e-01 4 5 5
2.970000e+02 2.870000e+02 -3.037074e+01 -9.373585e-01 -1.972065e-01 2.871736e-01 84 83 83
2.980000e+02 2.870000e+02 -2.717005e+01 -9.230838e-01 -1.282642e-02 3.843849e-01 146 143 143
2.990000e+02 2.870000e+02 -2.480790e+01 -9.212364e-01 -1.808024e-02 3.885829e-01 148 144 144
3.000000e+02 2.870000e+02 -2.252293e+01 -9.095649e-01 -3.143396e-01 2.718129e-01 144 142 141
3.010000e+02 2.870000e+02 -1.943728e+01 -8.091948e-01 -5.725867e-01 1.317126e-01 152 147 147
3.020000e+02 2.870000e+02 -1.445247e+01 -7.142231e-01 -6.937369e-01 9.281442e-02 152 147 149
3.030000e+02 2.870000e+02 -8.984915e+00 -6.439683e-01 -7.614053e-01 7.461089e-02 154 149 151
3.040000e+02 2.870000e+02 -3.701250e+00 -5.762250e-01 -8.154515e-01 5.480564e-02 158 154 153
3.050000e+02 2.870000e+02 7.740130e-01 -5.868266e-01 -8.061274e-01 7.611339e-02 146 142 141
3.060000e+02 2.870000e+02 5.332700e+00 -8.696758e-01 -2.952606e-01 3.955822e-01 113 111 110
3.070000e+02 2.870000e+02 7.377964e+00 -7.869027e-01 -1.940068e-01 5.857863e-01 110 108 108
3.080000e+02 2.870000e+02 8.642154e+00 -6.427493e-01 -2.643651e-01 7.190163e-01 109 105 105
3.090000e+02 2.870000e+02 9.492263e+00 -4.864548e-01 -3.258060e-01 8.106863e-01 108 104 105
3.100000e+02 2.870000e+02 1.003511e+01 -2.124319e-01 -4.157113e-01 8.843398e-01 108 106 106
3.110000e+02 2.870000e+02 1.023910e+01 -1.620362e-01 -4.523378e-01 8.770033e-01 112 110 109
3.120000e+02 2.870000e+02 1.037003e+01 -1.180232e-01 -4.736569e-01 8.727655e-01 113 110 110
3.130000e+02 2.870000e+02 1.047736e+01 -1.435905e-03 -4.973192e-01 8.675665e-01 113 112 111
3.140000e+02 2.870000e+02 1.045312e+01 6.835260e-02 -4.587602e-01 8.859272e-01 118 115 115
3.150000e+02 2.870000e+02 1.040674e+01 1.580824e-01 -4.798117e-01 8.630125e-01 118 115 116
3.160000e+02 2.870000e+02 1.021762e+01 2.364920e-01 -5.780743e-01 7.809620e-01 118 118 119
3.170000e+02 2.870000e+02 9.878940e+00 3.868254e-01 -5.993379e-01 7.008282e-01 125 126 126
3.180000e+02 2.870000e+02 9.296497e+00 4.629907e-01 -6.023191e-01 6.502701e-01 129 129 130
3.190000e+02 2.870000e+02 8.587236e+00 5.474183e-01 -5.774753e-01 6.056859e-01 130 129 130
3.200000e+02 2.870000e+02 7.694279e+00 6.383821e-01 -5.297144e-01 5.584541e-01 130 130 130
3.210000e+02 2.870000e+02 6.555949e+00 6.876395e-01 -5.231271e-01 5.034778e-01 132 133 132
3.220000e+02 2.870000e+02 5.201833e+00 7.341521e-01 -5.039705e-01 4.550103e-01 134 133 131
3.230000e+02 2.870000e+02 3.598718e+00 7.895536e-01 -4.524871e-01 4.145608e-01 129 124 121
1.610000e+02 2.880000e+02 1.694268e+01 -8.573399e-01 2.756173e-01 4.347452e-01 27 26 25
1.620000e+02 2.880000e+02 1.892460e+01 -6.830910e-01 4.907097e-01 5.409165e-01 101 96 95
1.630000e+02 2.880000e+02 2.014858e+01 -3.634459e-01 6.818200e-01 6.348454e-01 120 117 118
1.640000e+02 2.880000e+02 2.070741e+01 -1.331439e-01 7.324253e-01 6.677020e-01 122 119 121
1.650000e+02 2.880000e+02 2.086554e+01 -1.318462e-02 7.341656e-01 6.788424e-01 129 128 128
1.660000e+02 2.880000e+02 2.076905e+01 -5.529613e-02 7.195743e-01 6.922103e-01 144 141 142
1.670000e+02 2.880000e+02 2.063381e+01 6.990868e-03 7.280181e-01 6.855223e-01 157 154 150
1.680000e+02 2.880000e+02 2.040781e+01 8.669061e-02 7.406396e-01 6.662865e-01 153 153 151
1.690000e+02 2.880000e+02 2.009999e+01 1.041533e-01 7.420407e-01 6.622143e-01 160 157 158
1.700000e+02 2.880000e+02 1.978504e+01 1.620353e-01 7.482144e-01 6.433660e-01 168 164 164
1.710000e+02 2.880000e+02 1.943541e+01 2.796009e-01 7.567191e-01 5.909311e-01 186 182 182
1.720000e+02 2.880000e+02 1.893909e+01 3.434249e-01 7.494058e-01 5.660833e-01 198 193 193
1.730000e+02 2.880000e+02 1.836311e+01 3.566011e-01 7.446590e-01 5.641973e-01 200 197 196
1.740000e+02 2.880000e+02 1.777906e+01 3.619035e-01 7.357311e-01 5.724732e-01 194 191 191
1.750000e+02 2.880000e+02 1.720267e+01 3.530689e-01 6.994201e-01 6.214128e-01 169 163 165
1.760000e+02 2.880000e+02 1.667620e+01 3.373462e-01 6.437641e-01 6.868517e-01 144 139 138
1.770000e+02 2.880000e+02 1.621308e+01 2.944183e-01 6.176404e-01 7.292724e-01 133 131 129
1.780000e+02 2.880000e+02 1.584217e+01 2.112480e-01 6.395057e-01 7.391933e-01 128 124 122
1.790000e+02 2.880000e+02 1.558374e+01 2.542658e-01 7.088030e-01 6.579873e-01 72 66 66
1.990000e+02 2.880000e+02 5.912102e+01 -7.436029e-01 4.046204e-01 5.322941e-01 4 5 5
2.000000e+02 2.880000e+02 6.023653e+01 -8.563573e-01 9.681490e-02 5.072268e-01 62 60 58
2.010000e+02 2.880000e+02 6.188517e+01 -8.707459e-01 4.863409e-02 4.893224e-01 106 102 101
2.020000e+02 2.880000e+02 6.361892e+01 -7.409191e-01 1.001218e-01 6.640892e-01 100 99 98
2.030000e+02 2.880000e+02 6.467688e+01 -4.391520e-01 7.621121e-02 8.951745e-01 99 96 96
2.040000e+02 2.880000e+02 6.515799e+01 -2.539934e-01 5.609350e-02 9.655780e-01 99 97 96
2.050000e+02 2.880000e+02 6.542177e+01 -1.438845e-01 3.827654e-02 9.888540e-01 100 98 98
2.060000e+02 2.880000e+02 6.556144e+01 -8.984623e-02 -7.518046e-03 9.959273e-01 101 99 100
2.070000e+02 2.880000e+02 6.564939e+01 -4.405248e-02 -1.460268e-02 9.989225e-01 102 99 99
2.080000e+02 2.880000e+02 6.569370e+01 2.389190e-02 3.268665e-03 9.997092e-01 102 99 99
2.090000e+02 2.880000e+02 6.565343e+01 1.607481e-01 -4.061670e-02 9.861594e-01 103 101 102
2.100000e+02 2.880000e+02 6.549584e+01 2.454115e-01 -1.106998e-01 9.630778e-01 106 103 104
2.110000e+02 2.880000e+02 6.525224e+01 3.655325e-01 -1.605636e-01 9.168453e-01 111 108 108
2.120000e+02 2.880000e+02 6.484556e+01 5.007932e-01 -2.612270e-01 8.252070e-01 114 112 110
2.130000e+02 2.880000e+02 6.424149e+01 5.599541e-01 -3.087991e-01 7.688267e-01 114 113 111
2.140000e+02 2.880000e+02 6.351997e+01 5.922860e-01 -3.197102e-01 7.395828e-01 115 113 112
2.150000e+02 2.880000e+02 6.271134e+01 6.388534e-01 -3.315190e-01 6.942345e-01 115 114 113
2.160000e+02 2.880000e+02 6.175459e+01 7.289741e-01 -3.291857e-01 6.001946e-01 119 117 116
2.170000e+02 2.880000e+02 6.051428e+01 7.960838e-01 -2.991545e-01 5.260772e-01 123 122 122
2.180000e+02 2.880000e+02 5.900808e+01 8.508499e-01 -2.729580e-01 4.489415e-01 122 121 119
2.190000e+02 2.880000e+02 5.720519e+01 8.962936e-01 -1.822427e-01 4.042838e-01 76 71 71
2.960000e+02 2.880000e+02 -3.454089e+01 -9.329485e-01 -3.034042e-01 1.937860e-01 4 5 5
2.970000e+02 2.880000e+02 -2.996358e+01 -9.365475e-01 -2.120172e-01 2.791549e-01 80 79 80
2.980000e+02 2.880000e+02 -2.677990e+01 -9.231316e-01 -2.486605e-02 3.836792e-01 147 144 145
2.990000e+02 2.880000e+02 -2.449178e+01 -9.243200e-01 -5.628154e-02 3.774454e-01 155 151 151
3.000000e+02 2.880000e+02 -2.216538e+01 -8.994130e-01 -3.500964e-01 2.617034e-01 150 147 147
3.010000e+02 2.880000e+02 -1.895097e+01 -8.072472e-01 -5.761228e-01 1.281972e-01 158 155 155
3.020000e+02 2.880000e+02 -1.369826e+01 -7.240583e-01 -6.837385e-01 9.078128e-02 162 158 157
3.030000e+02 2.880000e+02 -7.910955e+00 -6.563929e-01 -7.511909e-01 6.971849e-02 167 162 161
3.040000e+02 2.880000e+02 -2.415252e+00 -5.823072e-01 -8.114142e-01 5.025221e-02 168 164 163
3.050000e+02 2.880000e+02 1.231655e+00 -5.945759e-01 -7.997308e-01 8.312722e-02 153 149 145
3.060000e+02 2.880000e+02 5.932507e+00 -8.693881e-01 -2.947327e-01 3.966068e-01 113 110 110
3.070000e+02 2.880000e+02 7.953860e+00 -7.676439e-01 -2.516914e-01 5.893847e-01 111 108 108
3.080000e+02 2.880000e+02 9.172689e+00 -6.329550e-01 -3.065692e-01 7.109031e-01 110 108 107
3.090000e+02 2.880000e+02 9.989415e+00 -4.838606e-01 -3.786087e-01 7.890084e-01 109 108 108
3.100000e+02 2.880000e+02 1.053545e+01 -2.704840e-01 -4.897549e-01 8.288417e-01 113 111 110
3.110000e+02 2.880000e+02 1.079340e+01 -1.836587e-01 -5.572894e-01 8.097518e-01 118 116 114
3.120000e+02 2.880000e+02 1.095829e+01 -1.055828e-01 -5.980083e-01 7.945051e-01 121 119 117
3.130000e+02 2.880000e+02 1.105696e+01 -6.399792e-02 -6.143304e-01 7.864492e-01 123 122 120
3.140000e+02 2.880000e+02 1.109693e+01 3.572756e-02 -6.108927e-01 7.909069e-01 128 127 126
3.150000e+02 2.880000e+02 1.109167e+01 1.201927e-01 -5.766585e-01 8.080957e-01 132 131 132
3.160000e+02 2.880000e+02 1.097577e+01 2.256827e-01 -6.117848e-01 7.581468e-01 128 126 126
3.170000e+02 2.880000e+02 1.068889e+01 3.919314e-01 -6.239447e-01 6.760790e-01 131 131 129
3.180000e+02 2.880000e+02 1.013760e+01 4.729131e-01 -6.101334e-01 6.356811e-01 131 130 130
3.190000e+02 2.880000e+02 9.426546e+00 5.483796e-01 -5.808252e-01 6.015995e-01 130 130 131
3.200000e+02 2.880000e+02 8.542426e+00 6.282356e-01 -5.446950e-01 5.555424e-01 132 130 131
3.210000e+02 2.880000e+02 7.452909e+00 6.776802e-01 -5.227402e-01 5.171965e-01 133 132 131
3.220000e+02 2.880000e+02 6.165552e+00 7.159750e-01 -5.113372e-01 4.753041e-01 132 132 130
3.230000e+02 2.880000e+02 4.680067e+00 7.748798e-01 -4.654542e-01 4.276841e-01 132 130 126
3.240000e+02 2.880000e+02 2.983952e+00 8.409091e-01 -3.532643e-01 4.099710e-01 74 71 67
1.610000e+02 2.890000e+02 1.494569e+01 -9.204863e-01 1.242276e-01 3.705030e-01 21 20 20
1.620000e+02 2.890000e+02 1.722697e+01 -7.347480e-01 4.377146e-01 5.182194e-01 93 89 86
1.630000e+02 2.890000e+02 1.855478e+01 -3.876009e-01 6.701281e-01 6.330039e-01 118 115 116
1.640000e+02 2.890000e+02 1.915347e+01 -1.883435e-01 7.340612e-01 6.524423e-01 127 124 126
1.650000e+02 2.890000e+02 1.938628e+01 -7.339080e-02 7.440992e-01 6.640257e-01 138 135 137
1.660000e+02 2.890000e+02 1.937348e+01 -9.660774e-02 7.274380e-01 6.793386e-01 155 152 153
1.670000e+02 2.890000e+02 1.932239e+01 -7.103725e-02 7.294635e-01 6.803210e-01 162 158 156
1.680000e+02 2.890000e+02 1.923217e+01 4.716297e-02 7.380889e-01 6.730531e-01 157 155 153
1.690000e+02 2.890000e+02 1.902349e+01 8.906333e-02 7.382327e-01 6.686406e-01 157 156 157
1.700000e+02 2.890000e+02 1.876208e+01 1.205195e-01 7.423373e-01 6.590981e-01 162 157 158
1.710000e+02 2.890000e+02 1.848733e+01 2.195842e-01 7.529881e-01 6.203157e-01 174 171 170
1.720000e+02 2.890000e+02 1.811046e+01 3.117424e-01 7.524115e-01 5.802531e-01 192 188 188
1.730000e+02 2.890000e+02 1.761126e+01 3.518277e-01 7.455589e-01 5.660029e-01 199 194 195
1.740000e+02 2.890000e+02 1.706167e+01 3.613129e-01 7.395696e-01 5.678818e-01 193 190 192
1.750000e+02 2.890000e+02 1.650729e+01 3.502510e-01 7.102689e-01 6.106081e-01 170 165 168
1.760000e+02 2.890000e+02 1.599567e+01 3.319706e-01 6.568110e-01 6.770487e-01 147 142 142
1.770000e+02 2.890000e+02 1.554710e+01 2.865030e-01 6.320068e-01 7.200579e-01 135 132 130
1.780000e+02 2.890000e+02 1.518407e+01 1.979598e-01 6.492043e-01 7.344016e-01 128 123 121
1.790000e+02 2.890000e+02 1.493676e+01 2.154221e-01 7.283776e-01 6.504302e-01 78 71 71
1.990000e+02 2.890000e+02 5.888660e+01 -3.084548e-02 8.743078e-01 4.843907e-01 1 2 2
2.000000e+02 2.890000e+02 5.958512e+01 -8.706952e-01 1.310884e-01 4.740313e-01 31 30 30
2.010000e+02 2.890000e+02 6.155524e+01 -8.717885e-01 6.467146e-02 4.855948e-01 94 91 89
2.020000e+02 2.890000e+02 6.335574e+01 -7.722111e-01 1.023631e-01 6.270660e-01 103 101 100
2.030000e+02 2.890000e+02 6.456031e+01 -4.951739e-01 8.469886e-02 8.646554e-01 100 98 97
2.040000e+02 2.890000e+02 6.512408e+01 -2.959416e-01 4.825154e-02 9.539865e-01 99 97 97
2.050000e+02 2.890000e+02 6.542573e+01 -1.786639e-01 2.722800e-02 9.835333e-01 100 98 98
2.060000e+02 2.890000e+02 6.560095e+01 -1.177768e-01 -2.630248e-02 9.926917e-01 102 99 100
2.070000e+02 2.890000e+02 6.571535e+01 -4.371554e-02 -1.888374e-02 9.988655e-01 104 100 100
2.080000e+02 2.890000e+02 6.574410e+01 1.013693e-02 -2.182127e-02 9.997105e-01 104 100 100
2.090000e+02 2.890000e+02 6.572521e+01 9.330125e-02 -7.009034e-02 9.931678e-01 103 100 100
2.100000e+02 2.890000e+02 6.563705e+01 1.875744e-01 -1.252334e-01 9.742343e-01 105 103 103
2.110000e+02 2.890000e+02 6.546059e+01 3.435483e-01 -1.207756e-01 9.313366e-01 108 107 106
2.120000e+02 2.890000e+02 6.511005e+01 4.690144e-01 -2.015236e-01 8.598917e-01 107 107 106
2.130000e+02 2.890000e+02 6.457122e+01 5.472608e-01 -2.532944e-01 7.977140e-01 110 109 108
2.140000e+02 2.890000e+02 6.390056e+01 5.943375e-01 -2.537987e-01 7.631180e-01 112 110 110
2.150000e+02 2.890000e+02 6.311551e+01 6.388992e-01 -2.464423e-01 7.287482e-01 112 111 111
2.160000e+02 2.890000e+02 6.219859e+01 7.206583e-01 -2.608772e-01 6.423353e-01 115 115 114
2.170000e+02 2.890000e+02 6.101909e+01 7.761878e-01 -2.891399e-01 5.602951e-01 121 120 119
2.180000e+02 2.890000e+02 5.959070e+01 8.429338e-01 -2.564042e-01 4.729900e-01 124 123 122
2.190000e+02 2.890000e+02 5.776982e+01 9.001922e-01 -1.857799e-01 3.938779e-01 105 102 99
2.960000e+02 2.890000e+02 -3.389936e+01 -9.305339e-01 -2.913545e-01 2.218543e-01 4 5 5
2.970000e+02 2.890000e+02 -2.944287e+01 -9.374743e-01 -1.920682e-01 2.902616e-01 83 81 81
2.980000e+02 2.890000e+02 -2.632978e+01 -9.196818e-01 -1.388187e-02 3.924191e-01 141 139 139
2.990000e+02 2.890000e+02 -2.405623e+01 -9.223430e-01 -5.583823e-02 3.823158e-01 152 150 149
3.000000e+02 2.890000e+02 -2.172184e+01 -8.995842e-01 -3.562109e-01 2.527095e-01 148 147 146
3.010000e+02 2.890000e+02 -1.841494e+01 -7.909520e-01 -5.999438e-01 1.202594e-01 161 158 159
3.020000e+02 2.890000e+02 -1.308502e+01 -7.170044e-01 -6.920564e-01 8.344233e-02 166 165 164
3.030000e+02 2.890000e+02 -7.385226e+00 -6.619116e-01 -7.464182e-01 6.879566e-02 168 166 166
3.040000e+02 2.890000e+02 -2.038330e+00 -5.848875e-01 -8.094993e-01 5.116086e-02 163 161 160
3.050000e+02 2.890000e+02 1.906537e+00 -6.153638e-01 -7.830454e-01 9.037313e-02 143 140 137
3.060000e+02 2.890000e+02 6.592815e+00 -8.686221e-01 -3.061183e-01 3.895988e-01 114 111 111
3.070000e+02 2.890000e+02 8.628947e+00 -7.270052e-01 -3.640673e-01 5.821670e-01 110 108 107
3.080000e+02 2.890000e+02 9.786680e+00 -5.572435e-01 -4.677943e-01 6.860381e-01 112 111 109
3.090000e+02 2.890000e+02 1.057728e+01 -4.644145e-01 -4.865781e-01 7.399736e-01 113 114 112
3.100000e+02 2.890000e+02 1.116828e+01 -3.090842e-01 -5.512069e-01 7.750083e-01 118 116 115
3.110000e+02 2.890000e+02 1.151706e+01 -1.981275e-01 -6.021273e-01 7.734263e-01 121 120 118
3.120000e+02 2.890000e+02 1.173585e+01 -1.234330e-01 -6.077561e-01 7.844723e-01 120 120 117
3.130000e+02 2.890000e+02 1.185234e+01 -1.129019e-01 -6.099299e-01 7.843715e-01 122 123 120
3.140000e+02 2.890000e+02 1.194654e+01 -3.050389e-03 -5.835435e-01 8.120762e-01 126 124 124
3.150000e+02 2.890000e+02 1.195776e+01 1.508429e-01 -5.114878e-01 8.459472e-01 137 134 135
3.160000e+02 2.890000e+02 1.182828e+01 2.312729e-01 -5.456635e-01 8.054590e-01 130 128 128
3.170000e+02 2.890000e+02 1.154832e+01 3.727230e-01 -6.119671e-01 6.975484e-01 129 127 127
3.180000e+02 2.890000e+02 1.100755e+01 4.580621e-01 -6.237663e-01 6.333204e-01 131 130 131
3.190000e+02 2.890000e+02 1.028566e+01 5.245222e-01 -6.072963e-01 5.967141e-01 133 131 134
3.200000e+02 2.890000e+02 9.412271e+00 5.960933e-01 -5.639514e-01 5.715170e-01 133 131 134
3.210000e+02 2.890000e+02 8.353756e+00 6.425378e-01 -5.558402e-01 5.274343e-01 133 131 131
3.220000e+02 2.890000e+02 7.115800e+00 6.893795e-01 -5.545795e-01 4.660444e-01 133 134 132
3.230000e+02 2.890000e+02 5.668945e+00 7.526398e-01 -4.958126e-01 4.332473e-01 130 131 128
3.240000e+02 2.890000e+02 3.971531e+00 7.992435e-01 -4.346628e-01 4.150639e-01 105 101 98
1.610000e+02 2.900000e+02 1.293686e+01 -9.427865e-01 3.000821e-02 3.320438e-01 22 21 21
1.620000e+02 2.900000e+02 1.550730e+01 -7.729226e-01 3.925935e-01 4.984586e-01 93 90 88
1.630000e+02 2.900000e+02 1.692658e+01 -4.523196e-01 6.503934e-01 6.102421e-01 122 117 117
1.640000e+02 2.900000e+02 1.759277e+01 -2.578062e-01 7.300743e-01 6.328724e-01 133 129 129
1.650000e+02 2.900000e+02 1.791937e+01 -1.473573e-01 7.545164e-01 6.395239e-01 144 140 142
1.660000e+02 2.900000e+02 1.800851e+01 -1.024127e-01 7.367478e-01 6.683670e-01 163 157 156
1.670000e+02 2.900000e+02 1.799880e+01 -1.213374e-01 7.179442e-01 6.854439e-01 163 158 157
1.680000e+02 2.900000e+02 1.801249e+01 -4.178579e-02 7.278989e-01 6.844100e-01 159 155 155
1.690000e+02 2.900000e+02 1.795039e+01 9.142712e-02 7.436201e-01 6.623219e-01 158 156 156
1.700000e+02 2.900000e+02 1.772915e+01 1.081982e-01 7.432955e-01 6.601552e-01 160 156 155
1.710000e+02 2.900000e+02 1.749433e+01 1.561601e-01 7.460886e-01 6.472757e-01 165 163 161
1.720000e+02 2.900000e+02 1.722087e+01 2.562850e-01 7.532426e-01 6.057587e-01 179 176 175
1.730000e+02 2.900000e+02 1.682640e+01 3.308193e-01 7.517405e-01 5.704777e-01 190 185 185
1.740000e+02 2.900000e+02 1.632602e+01 3.526435e-01 7.457102e-01 5.652954e-01 188 183 185
1.750000e+02 2.900000e+02 1.579842e+01 3.505526e-01 7.195444e-01 5.994737e-01 172 166 169
1.760000e+02 2.900000e+02 1.529846e+01 3.327328e-01 6.684927e-01 6.651364e-01 147 145 145
1.770000e+02 2.900000e+02 1.485704e+01 2.770496e-01 6.380975e-01 7.183837e-01 138 133 131
1.780000e+02 2.900000e+02 1.452109e+01 1.867506e-01 6.626869e-01 7.252381e-01 133 125 124
1.790000e+02 2.900000e+02 1.428558e+01 1.539103e-01 7.277240e-01 6.683782e-01 89 81 80
2.000000e+02 2.900000e+02 5.931085e+01 -9.086063e-01 8.852264e-02 4.081645e-01 12 12 13
2.010000e+02 2.900000e+02 6.130983e+01 -8.847568e-01 7.081291e-02 4.606420e-01 74 71 71
2.020000e+02 2.900000e+02 6.309643e+01 -8.065408e-01 9.877591e-02 5.828681e-01 103 101 98
2.030000e+02 2.900000e+02 6.442342e+01 -5.689956e-01 6.677353e-02 8.196251e-01 101 98 98
2.040000e+02 2.900000e+02 6.509952e+01 -3.292599e-01 2.629552e-02 9.438731e-01 99 98 97
2.050000e+02 2.900000e+02 6.543955e+01 -2.175716e-01 2.492072e-02 9.757262e-01 99 98 99
2.060000e+02 2.900000e+02 6.565754e+01 -1.429627e-01 3.744436e-03 9.897210e-01 99 97 98
2.070000e+02 2.900000e+02 6.579643e+01 -1.192659e-02 8.182734e-03 9.998954e-01 101 98 98
2.080000e+02 2.900000e+02 6.581335e+01 1.398568e-02 1.552650e-02 9.997816e-01 102 99 99
2.090000e+02 2.900000e+02 6.581132e+01 2.870469e-02 -1.872451e-02 9.994125e-01 102 98 99
2.100000e+02 2.900000e+02 6.578118e+01 1.411828e-01 -4.536598e-02 9.889435e-01 101 98 99
2.110000e+02 2.900000e+02 6.562173e+01 2.936399e-01 -7.906966e-02 9.526403e-01 102 99 100
2.120000e+02 2.900000e+02 6.531137e+01 4.241290e-01 -1.249108e-01 8.969458e-01 104 102 103
2.130000e+02 2.900000e+02 6.481422e+01 4.792714e-01 -1.688244e-01 8.612765e-01 105 104 104
2.140000e+02 2.900000e+02 6.420762e+01 5.822747e-01 -2.220422e-01 7.820827e-01 108 107 106
2.150000e+02 2.900000e+02 6.342051e+01 6.338996e-01 -2.351283e-01 7.368080e-01 112 111 109
2.160000e+02 2.900000e+02 6.251932e+01 6.907911e-01 -2.413005e-01 6.816023e-01 114 114 112
2.170000e+02 2.900000e+02 6.144627e+01 7.616762e-01 -2.703393e-01 5.888684e-01 119 119 117
2.180000e+02 2.900000e+02 6.008822e+01 8.372969e-01 -2.455335e-01 4.885153e-01 125 123 121
2.190000e+02 2.900000e+02 5.830558e+01 8.850700e-01 -2.333904e-01 4.027157e-01 124 122 117
2.960000e+02 2.900000e+02 -3.355332e+01 -8.990460e-01 -4.097073e-01 1.544547e-01 5 7 7
2.970000e+02 2.900000e+02 -2.873221e+01 -9.347644e-01 -1.744429e-01 3.094919e-01 89 87 87
2.980000e+02 2.900000e+02 -2.591982e+01 -9.226929e-01 -4.673051e-02 3.826932e-01 145 142 143
2.990000e+02 2.900000e+02 -2.362669e+01 -9.235457e-01 -9.226560e-02 3.722236e-01 151 149 148
